ply
format ascii 1.0
element vertex 1703
property float x
property float y
property float z
end_header
0.007187 1.536398 -1.389585
1.007777 1.696226 -3.271953
1.990431 1.632391 -0.542690
2.325850 1.609151 -0.912826
2.927876 1.604120 -2.011835
3.070637 1.590880 -0.955451
2.958991 1.594856 -2.008589
2.958991 1.594856 -2.008589
3.703491 1.563461 -1.645076
-0.355312 1.663010 -1.078130
-0.282264 1.619782 -0.766321
0.134846 0.762676 -0.372609
0.138864 0.481512 -0.290864
1.656461 1.651493 -1.134070
2.502564 1.602419 -1.218214
3.047817 1.588161 0.043984
3.108396 1.581029 -0.595358
3.108396 1.581029 -0.595358
2.654532 1.597182 -1.813844
3.549595 1.575306 -0.265208
4.024117 1.547848 -2.743816
4.046238 1.553468 -2.682281
4.044665 1.552770 -2.681017
-0.322957 1.726073 -1.043821
0.239933 1.067976 -1.329161
0.100467 0.708110 -0.619067
0.134801 0.525282 -0.281304
1.723800 1.651945 -0.827863
1.718894 1.647622 -0.825961
0.165515 0.373291 -0.293221
2.869810 1.596481 -0.130621
4.351571 1.549319 -1.565722
4.021058 1.550100 -2.707788
4.685749 1.549127 -1.605615
0.123630 1.152121 0.020502
0.045267 1.198581 -0.199211
0.087432 0.275234 -0.420657
0.067801 0.878617 -0.929504
0.156429 0.453414 -0.263057
-0.470151 1.703662 -1.064597
0.205350 1.071072 -1.317121
0.100383 0.573645 -1.339913
-0.231363 1.605426 -1.118697
0.116393 1.154743 0.118948
0.043976 1.157008 -0.554977
0.081786 1.042854 -0.225914
3.937355 1.560604 -3.731744
-0.413910 1.601910 -0.717162
0.106894 1.289844 -0.026479
-0.043715 1.203011 -0.617171
0.108858 0.525145 -1.332563
-0.607680 1.648388 -0.399451
-0.607680 1.648388 -0.399451
-0.029972 1.548305 -0.745012
0.135697 0.632589 -0.535339
4.116786 1.561997 -2.056928
4.363671 1.574384 -1.782856
-0.598509 1.652929 -1.216225
-0.312179 1.639162 -0.783606
-0.247282 1.613036 -0.695783
0.287335 0.916108 -1.367916
0.129194 0.548406 -1.332565
3.074959 1.590767 -3.778495
-0.912859 1.651338 -1.045909
-0.586733 1.653554 -0.382914
-0.425404 1.600223 -0.033268
-0.279100 1.633722 -1.766756
0.129861 1.262441 0.051222
0.139754 0.474661 -0.278267
0.084153 0.506235 -1.356054
4.717836 0.712639 -2.290907
-0.852880 1.658911 -1.101536
-0.210830 1.599254 -0.569736
-0.274257 1.635015 -1.797498
0.132090 1.252141 0.066439
0.102948 0.846818 -0.413823
0.227416 0.997406 -1.483554
0.100925 0.705772 -0.407768
4.100149 1.565164 -2.111747
4.292583 0.972559 -1.940727
4.733162 0.591785 -2.319082
4.773653 0.554909 -2.256973
4.790512 0.559766 -2.265991
4.716265 0.465765 -1.829774
-0.370886 1.661677 -1.787338
-0.054225 1.539541 -1.469789
-0.042063 1.550255 -1.397564
0.168338 1.468423 -1.348557
0.134188 1.122621 -0.021134
0.238778 1.066768 -1.327653
0.122488 0.812387 -0.080487
2.375991 1.607147 -1.616192
2.903871 1.584759 -0.894457
3.253434 1.581539 -1.124176
3.768388 1.560097 -0.031950
3.717882 1.564609 -1.621088
3.388850 1.573550 -3.477765
3.438798 1.569324 -3.518527
4.312037 1.551402 -1.530421
5.015513 1.517442 -1.955019
5.111357 1.551017 -1.326022
5.560618 1.526878 -1.098838
4.730985 0.748647 -2.282702
4.790899 0.695294 -2.289598
-0.853398 1.664906 -1.256130
-0.584374 1.627367 -1.293856
-0.462120 1.653425 -1.098734
-0.367727 1.652443 -0.849098
-0.235838 1.602246 -0.769022
-0.424508 1.669661 -1.672613
-0.412396 1.669518 -1.686256
-0.065167 1.561661 -1.398557
0.080626 1.105824 -0.068735
0.113485 0.667715 -0.475888
0.148792 0.458016 -0.269082
0.105865 0.558209 -1.340303
2.654075 1.596711 -1.813628
2.496469 1.603295 -1.339202
3.303838 1.577105 -0.207696
3.048571 1.585912 0.043951
3.019144 1.582976 0.121420
3.490484 1.574462 -0.304777
3.373144 1.576424 -1.501542
3.499887 1.571778 -2.840896
3.859619 1.557497 -3.717999
4.703586 1.547184 -1.632123
4.961734 1.526078 -0.840777
5.798442 1.540684 -0.713391
0.092458 0.743690 -0.748243
0.057450 0.545162 -1.358048
-0.042930 1.177100 -0.589522
-0.098549 1.229233 -0.300184
0.060589 1.120420 -0.012222
-0.001316 1.494132 -1.005186
0.319021 0.923581 -1.505945
0.156781 0.691341 -0.328377
-0.311620 1.720059 -1.030370
0.111773 1.331110 0.028015
0.117403 1.295786 0.009910
0.024688 1.141857 -0.569727
0.175616 0.355556 -0.281190
4.826820 1.115213 -1.565463
-0.947499 1.624858 -1.043730
-0.309501 1.620277 0.106454
0.073388 1.187862 -0.096749
5.212386 0.813743 -1.629662
-0.911731 1.660936 -0.988754
0.133157 0.312923 -0.227506
4.849696 1.107205 -1.599278
4.480061 0.939246 -2.272456
-0.814716 1.648597 -1.208619
-0.368900 1.659160 -1.544639
-0.314691 1.673240 -1.075705
-0.290608 1.661358 -1.073943
-0.247828 1.620242 -0.615120
-0.215421 1.586803 -0.612812
-0.199479 1.603390 -0.773085
-0.008777 1.519876 -1.426024
0.115039 1.470921 -1.348425
0.202072 0.912730 -1.227540
0.054430 0.731198 -0.449440
3.533777 1.585822 -2.798325
3.682761 1.574863 -2.611083
4.819544 1.114217 -1.659771
5.201353 0.775782 -1.591767
-0.963944 1.642544 -0.998515
-0.624474 1.658781 -1.179993
-0.462131 1.652000 -1.098066
-0.413385 1.712070 -1.062591
-0.318308 1.703198 -1.069158
-0.269164 1.604109 -0.747320
-0.307964 1.634672 -0.683303
-0.261457 1.622894 -0.630757
0.001345 1.545615 -1.359092
0.075112 1.489121 -1.332237
0.120888 1.251184 0.083162
0.110963 1.147002 0.026353
0.122602 1.230462 0.082283
0.134191 1.226748 0.090147
0.134335 1.122240 -0.020752
0.287400 0.940879 -1.486232
0.069689 0.591463 -1.368046
4.970971 1.507524 -0.866114
4.206089 1.023245 -1.961930
4.291870 0.943035 -2.007422
4.460512 0.834149 -2.103557
4.324703 0.851036 -1.992707
4.789267 0.597882 -2.277217
5.174813 0.767191 -1.545961
4.238247 0.409737 -2.259372
0.061052 0.915213 -0.960207
0.095872 0.861418 -0.359446
0.096404 0.755461 -0.276608
0.150062 0.518808 -0.251476
0.079246 0.925423 -0.801855
0.068244 0.978039 -0.744745
0.181814 0.714236 -1.000060
0.154853 0.401822 -0.319107
0.172301 0.810194 -1.334063
4.433658 0.916184 -2.315325
-0.038302 1.191779 -0.619430
0.230292 1.012283 -1.489990
0.108550 0.839806 -0.678988
4.678128 0.466598 -1.872712
4.437199 0.043908 -2.151255
0.085402 1.005248 -0.146400
0.094172 0.896869 -0.786185
0.094172 0.896869 -0.786185
0.101808 0.861799 -0.799766
0.101808 0.861799 -0.799766
0.071315 0.789598 -0.423618
0.244391 0.750900 -0.051942
4.467133 0.020552 -1.836429
4.471870 0.020526 -1.837240
0.052837 0.974738 -0.984369
0.081167 1.010074 -0.336887
0.100002 0.878416 -0.359537
4.435427 1.523015 -3.431292
4.597601 0.492445 -1.934543
4.712341 0.472787 -1.907625
4.733540 0.410014 -1.860179
0.254173 1.000615 -1.415529
4.786848 0.560631 -2.259413
4.653256 0.459427 -1.926430
4.561601 0.294628 -2.166427
4.139712 -0.006368 -2.738534
0.309906 0.956445 -1.498351
4.543556 1.314254 -3.611999
0.116172 0.515619 -0.196201
4.454371 0.785344 -2.014832
4.193873 0.479971 -2.182201
4.776800 0.695343 -2.247978
4.765440 0.677687 -2.206963
5.308774 0.604800 -1.807999
4.208742 0.461951 -2.164256
4.401589 0.351865 -2.217197
4.503463 0.322892 -2.185725
4.660724 0.336262 -1.576615
4.096156 0.000368 -2.771812
0.125182 0.612488 -0.322240
0.126934 0.558442 -0.274425
0.108496 0.735268 -0.187519
4.210824 0.965788 -1.996649
4.488448 0.296716 -2.193445
0.145683 0.516621 -0.250329
4.505286 0.873745 -2.324068
0.062858 0.843876 -0.390579
0.198267 0.701835 -0.009932
0.234009 1.012431 -1.398156
0.088231 0.866043 -0.770298
0.133576 0.924501 0.104775
0.074115 0.858095 -0.627539
0.074115 0.858095 -0.627539
0.096098 0.864570 -0.571456
0.063089 0.852006 -0.513315
0.125752 0.812411 -0.280480
0.161213 0.710000 -0.994379
0.089541 0.978972 -0.687399
0.078411 0.914440 -0.744550
0.097318 0.920114 -0.178426
0.263856 0.725603 0.043016
0.253562 0.962747 -1.395395
0.196813 0.944909 -1.364442
0.075496 0.884580 -0.543607
0.138249 0.827990 -0.903215
0.095974 0.835548 -0.749897
0.088951 0.847882 -0.341128
0.120305 0.668118 -0.476342
0.120305 0.668118 -0.476342
0.125660 0.587193 -0.274299
4.785644 0.590858 -2.217176
0.053497 1.038056 -1.057634
0.069096 0.901082 -0.990174
0.110817 0.893706 -0.210456
0.132130 0.802486 -0.297175
0.139510 0.784246 -0.071328
0.168874 0.732267 0.063200
0.109577 0.667020 -0.941790
0.176086 0.679931 -0.559019
0.076983 1.124445 0.040140
0.148034 0.673636 0.023881
4.409325 0.969890 -2.349864
0.210842 1.042471 -1.510109
0.137210 1.123520 -0.020088
0.136083 1.127526 -0.005437
0.219653 1.038682 -1.427742
0.232908 1.005633 -1.465193
0.058366 0.937538 -0.977470
0.103231 0.787879 -0.607334
0.094392 0.875236 -0.360402
0.067178 0.622122 -0.875887
5.583044 1.506970 -1.100316
4.289595 0.922057 -2.016185
4.584560 0.398767 -2.028090
4.688881 0.432533 -1.938595
4.597294 0.434601 -1.526010
4.603549 0.469779 -1.512002
0.051693 1.061019 -1.069898
0.227074 1.026656 -1.429588
0.236707 0.967540 -1.436816
0.061954 0.930828 -0.971541
0.049992 0.810132 -0.430933
0.112260 0.718038 -0.390136
0.127186 0.660012 -0.462970
0.149322 0.440752 -0.264683
0.087121 0.334508 -0.371631
4.266252 0.407885 -2.258666
4.733503 0.435112 -1.923814
4.740832 0.437519 -1.924977
4.521318 0.317956 -2.165515
4.480774 0.963487 -2.238141
4.706350 0.722243 -2.254320
0.068463 0.638987 -0.977044
4.365796 1.515690 -3.468042
5.460932 1.531371 -0.725113
4.693958 0.471286 -1.877652
4.867840 1.171419 -1.409226
0.195917 0.667361 -0.315189
3.917788 1.546172 -3.740899
0.198931 0.635311 -0.101402
0.198199 0.614788 0.068294
3.813493 1.564377 -0.092364
4.378239 1.541322 -3.463821
4.317506 0.946010 -1.935106
4.869642 1.109008 -1.502959
4.568494 0.488945 -1.549516
4.908450 0.389646 -1.457438
0.230910 0.692202 -0.172942
0.104421 0.613366 -0.336343
3.339847 1.573306 -3.524578
3.713267 1.561105 -0.144349
4.065613 1.548779 -2.712566
4.489462 1.077661 -2.315519
4.502457 0.938377 -2.274182
4.289095 0.886815 -1.976304
4.365074 0.833784 -1.999393
4.734787 0.575947 -2.072879
5.172866 0.802103 -1.528499
4.203359 0.430077 -2.210034
4.788883 0.398407 -1.846268
4.083090 0.043641 -2.716482
4.176236 0.022139 -2.690448
0.093986 0.760773 -0.151594
-0.428192 1.651619 -0.639845
0.095905 0.761370 -0.150616
0.199640 0.889597 -1.214998
-0.037517 1.140315 -0.627236
0.247476 1.016946 -1.440929
0.247476 1.016946 -1.440929
0.216379 0.979017 -1.361721
0.111147 0.761088 -0.163322
0.136738 0.619237 -0.226401
0.069481 1.152689 -0.070241
0.084296 1.169293 0.020437
0.082785 1.168419 0.019321
0.042455 0.997719 -1.021880
0.043090 0.998080 -1.021795
0.209278 0.966401 -1.177128
0.050693 0.793499 -0.444378
0.118026 0.836125 -0.083335
0.112727 0.990824 -1.062315
0.246312 0.953315 -1.438950
0.172301 0.810194 -1.334063
0.141052 0.869931 -0.039810
-0.085055 1.551161 -1.251586
0.101683 0.966209 -0.091223
0.123347 0.698147 -0.460805
0.143177 0.594020 -0.275155
4.390051 0.377366 -2.205272
4.619536 0.382307 -2.026557
-0.301219 1.626207 -0.792705
-0.119886 1.586394 -1.416497
-0.187317 1.606240 -0.765485
-0.067976 1.549535 -1.503650
0.097074 0.726540 -0.675363
0.109421 0.718678 -0.079603
0.109421 0.718678 -0.079603
4.821403 1.161055 -1.447572
4.730363 0.631875 -1.972900
4.702743 0.538316 -1.793768
-0.262094 1.612236 -0.785852
0.188181 1.031570 -1.525358
0.108071 1.126523 -0.023023
0.095650 0.828540 -0.396668
0.166520 0.353011 -0.300630
-0.249436 1.636650 -0.575254
0.015257 1.241448 -1.038626
0.097564 1.380066 -0.056736
0.099842 1.378280 -0.020722
0.012115 1.230159 -1.038965
0.246326 1.028005 -1.522792
0.101081 1.035909 -0.130420
0.067644 0.889851 -0.927878
0.087786 0.772354 -0.758967
0.134425 0.592267 -0.288374
4.446494 0.932793 -2.264131
4.506379 0.847713 -2.289060
4.517786 0.849142 -2.292451
5.258294 0.775263 -1.618009
4.733303 0.565634 -2.006198
4.573409 0.465107 -1.503917
0.301257 0.944258 -1.483439
0.125395 0.821604 -0.068866
0.129271 0.648115 -0.515269
4.449227 0.949176 -2.282331
0.157224 0.366136 -0.293721
4.433561 0.901874 -2.322283
4.788644 0.624884 -2.155836
5.186632 0.751628 -1.646742
-0.042770 1.167463 -0.627409
-0.493394 1.645834 -1.112312
0.076926 1.089346 -0.088589
0.030622 1.096068 -0.531285
0.164022 0.609482 -0.127761
-0.037123 1.138311 -0.588981
0.189698 0.905602 -1.355775
0.115197 0.768709 -0.199570
0.067217 1.153591 -0.069271
1.367779 1.652002 -2.245903
0.171093 0.843713 -1.356211
5.291602 1.523396 -1.550461
-0.127083 1.594487 -1.568037
-0.127083 1.594487 -1.568037
-0.096539 1.602214 -1.514505
0.233899 0.992946 -1.520581
0.172303 0.712688 -0.943599
0.168521 0.710744 -0.943279
0.152484 0.660005 0.038559
4.474797 0.920991 -2.326372
0.210241 1.015861 -1.534983
0.201493 1.013277 -1.530857
0.294610 0.942713 -1.459919
0.134845 0.699926 -0.174527
0.197282 0.558464 0.106121
-0.803522 1.655972 -1.189266
-0.121585 1.581656 -1.393445
0.018108 1.507639 -1.189527
-0.021125 1.496922 -0.943815
0.067364 1.472106 0.107794
0.135039 1.266080 0.090962
0.232772 0.978125 -1.442542
0.110725 0.846018 -0.249436
5.199855 0.809435 -1.625297
5.192118 0.808679 -1.624461
-0.232875 1.606171 -0.568912
-0.087080 1.575153 -1.570388
-0.190871 1.587622 -0.429211
0.131636 1.285114 0.023994
0.022693 1.198498 -1.030875
0.231863 0.989694 -1.451299
0.203327 0.981684 -1.384617
0.132446 0.927909 0.110899
0.836303 0.970032 -1.437985
0.165064 0.722903 -0.958732
0.142969 0.606164 -0.277581
5.238046 0.780567 -1.606812
5.228048 0.780708 -1.604157
4.739229 0.406714 -1.863670
-0.307344 1.629505 -1.106951
-0.245959 1.613744 -0.589656
-0.253266 1.612509 -0.344196
-0.282812 1.601613 0.104877
-0.054692 1.563245 -1.523341
0.018840 1.220296 -1.030004
1.379487 1.661119 -2.158196
0.148354 1.141649 -1.427156
0.221380 1.008196 -1.568312
0.072348 0.852431 -0.890007
0.067836 0.749042 -0.459871
0.065566 0.747956 -0.459680
4.463450 1.011945 -2.291159
4.476222 1.119628 -2.290961
4.529562 0.868517 -2.315176
5.209003 0.804376 -1.530001
4.762798 0.413605 -1.915313
0.001357 1.424839 -0.979714
0.200504 1.462483 -1.366996
0.097732 1.377907 -0.072197
0.015022 1.215839 -1.039969
0.107368 1.121563 0.005137
0.242421 1.056629 -1.330466
0.241176 0.984581 -1.426551
0.066499 0.909789 -0.944631
0.113298 0.678196 -0.449046
0.097152 0.595091 -0.906082
0.177874 0.613481 -0.198338
0.191467 0.613344 -0.052995
4.271065 1.544303 -2.728719
0.138626 0.519743 -0.240044
0.132905 0.519823 -0.238852
4.450881 1.514278 -3.469371
5.001510 1.372604 -2.259195
5.046304 1.375608 -2.225997
5.293124 1.516062 -1.562639
4.338347 0.956865 -2.019065
4.259164 0.919964 -2.038339
4.530660 0.868763 -2.270983
4.757560 0.736627 -2.237091
4.760765 0.646787 -2.211367
5.157663 0.764478 -1.546867
4.679297 0.501261 -1.829440
4.579398 0.386151 -2.000854
4.648804 0.373356 -2.014618
4.765969 0.404902 -1.880352
4.757459 0.367222 -1.948200
3.259666 1.580471 -1.371047
3.513851 1.561450 -0.278948
0.139042 0.509986 -0.116644
5.432040 1.521923 -0.758259
0.149639 0.474567 -0.260195
0.149071 0.577491 -0.203477
0.138919 0.555362 -1.311673
0.131229 0.730411 -0.077649
4.337005 1.018388 -1.908466
0.128448 0.698649 -0.131372
0.197725 0.623101 -0.175562
4.106120 1.553771 -2.101787
4.461865 0.881757 -2.141188
4.354096 0.868103 -2.005278
0.203209 0.683472 -0.315199
3.696518 1.581141 -2.653484
4.905538 1.117264 -1.455031
4.478951 0.810887 -2.130241
4.398190 0.814797 -2.020237
0.103611 0.705148 -0.661127
0.188982 0.604757 -0.063714
0.130204 0.522538 -0.169806
3.893183 1.538496 -2.737912
4.270921 0.961022 -1.983889
4.294364 0.973109 -1.939161
4.280309 0.970684 -1.934574
0.104893 0.733374 -0.222761
0.138296 0.663083 -0.123353
3.903647 1.567992 -2.736945
4.418108 0.827787 -2.082407
0.135817 0.534310 -0.222862
0.088340 0.773618 -0.406255
0.053220 0.964965 -0.992730
4.350000 1.553043 -1.817970
3.613637 1.564028 -1.523520
3.696096 1.569014 -2.586046
0.098080 0.788387 -0.169218
0.099921 0.789801 -0.168879
0.084753 1.111644 -0.053109
0.078386 1.130618 -0.023482
0.096780 0.722579 -0.728605
0.121027 0.610648 -0.321098
-0.055515 1.565948 -1.393732
-0.031715 1.522324 -0.923536
0.073495 1.056007 -0.145667
0.255683 1.471810 -1.372410
-0.035559 1.172662 -0.567559
0.109846 0.952937 -0.093455
0.095047 0.848377 -0.976281
0.119015 0.726678 -0.236894
0.191214 0.708757 -0.302181
4.448352 0.961606 -2.235173
-0.084642 1.562382 -1.193584
-0.122600 1.527848 -1.096807
0.023799 1.509860 -1.191789
0.303115 0.944993 -1.461241
0.106894 0.901193 -0.179290
0.064930 0.758441 -0.458983
0.155249 0.643119 -0.532729
0.137135 0.702570 -0.128871
4.446323 1.070675 -2.250469
-0.015435 1.462453 -0.973622
-0.016980 1.502133 -0.942634
0.409648 1.626452 -1.892632
0.893062 1.667736 -2.180934
0.134046 1.265405 0.051183
0.258897 0.812112 0.076441
0.231532 0.630555 0.017857
4.342123 0.866864 -2.002406
-0.594795 1.656624 -1.212145
-0.384725 1.649525 -0.775895
-0.217675 1.601130 -0.726464
0.007881 1.505285 -1.410817
0.113862 1.485640 -1.370801
0.075419 1.094483 -0.144975
0.124620 1.112433 0.015267
0.103046 0.970474 -0.154110
3.680988 1.587307 -2.562979
-0.544014 1.653613 -1.169204
-0.544014 1.653613 -1.169204
-0.716420 1.649214 0.119340
-0.352048 1.639015 -0.831613
-0.422838 1.632044 -0.423747
-0.045510 1.535370 -1.437401
0.552169 1.623816 -1.739481
0.582931 1.618844 -1.741308
0.021021 1.198520 -1.031107
1.216301 1.671368 -2.289043
-0.001352 1.128711 -0.594583
1.368178 1.662575 -2.299084
1.355069 1.666950 -2.220459
1.424712 1.654676 -2.244893
0.132983 0.664766 -0.905764
0.143348 0.670206 -0.907430
3.824088 1.574327 -2.778971
5.126468 1.546105 -1.296398
4.441902 0.888701 -2.301699
-0.429987 1.711590 -0.949736
-0.424060 1.720279 -0.884939
-0.412459 1.666386 -0.766308
-0.289591 1.623553 -0.781676
-0.349602 1.630333 -0.676164
-0.238199 1.613974 -0.853638
-0.242428 1.629164 -0.526657
-0.102397 1.566583 -1.372319
-0.188009 1.588480 -0.406194
-0.018614 1.512060 -1.430808
-0.011283 1.515301 -1.423315
-0.010547 1.526270 -0.271036
0.099118 1.381111 -0.036075
-0.043868 1.168628 -0.638550
-0.017377 1.208630 -0.315106
1.391728 1.659495 -2.298271
1.391728 1.659495 -2.298271
0.048379 1.007496 -1.002946
0.093449 0.869940 -0.347356
0.104850 0.526286 -1.341232
0.151104 0.590011 -0.212793
3.399195 1.572573 -1.429280
0.149665 0.444900 -0.280324
4.132473 1.554974 -2.698238
4.135074 1.558722 -2.030401
5.009190 1.373939 -2.260668
5.225913 1.533925 -1.457145
4.836788 1.102532 -1.497890
4.428785 0.852089 -2.082748
4.394550 0.833341 -2.039320
0.139154 0.651459 -0.046527
-0.337107 1.668233 -1.014995
0.050960 1.161041 -0.148559
0.096681 0.723875 -0.724332
-0.450597 1.689007 -0.760622
-0.285817 1.656768 -1.056776
0.079271 0.635038 -1.377857
0.103286 0.315083 -0.350759
-0.837123 1.666174 -1.138744
-0.536821 1.691354 -1.101808
-0.453316 1.676943 -1.079501
0.074009 0.770471 -0.428040
0.258030 0.955362 -1.439016
0.043938 0.712384 -0.474444
0.058103 0.545258 -1.358276
-0.830955 1.662157 -1.186524
-0.567419 1.694809 -1.101651
-0.358686 1.661911 -1.098456
-0.262507 1.606610 -0.825704
-0.063071 1.151911 -0.261990
-0.012552 1.156358 -0.564050
0.088100 1.134173 -0.110251
0.085236 0.780216 -0.758598
0.068209 0.762749 -0.460710
0.075605 0.524182 -1.353986
0.141981 0.432482 -0.301061
3.228292 1.583128 -0.267533
-0.778816 1.645072 -1.241991
-0.373087 1.620970 -0.363611
-0.143306 1.622689 -1.572614
-0.011116 1.566485 -0.888134
1.098898 1.667961 -2.461066
0.123337 0.552436 -0.268596
0.152748 0.377608 -0.327359
3.706662 1.568050 -1.681275
5.794611 1.538009 -0.783565
-0.626925 1.653147 -1.166949
-0.492600 1.675172 -1.085294
-0.352524 1.732966 -1.064707
-0.285564 1.641707 -1.812721
0.002911 1.510564 -1.279734
0.016448 1.522707 -1.271133
-0.056201 1.212465 -0.222743
0.069472 1.206697 -0.124751
0.073471 1.208582 -0.127286
0.225032 1.032113 -1.524176
0.137659 0.514011 -0.288368
2.855300 1.588227 -1.081920
3.357832 1.561633 -0.270659
3.874736 1.572909 -3.646609
3.876914 1.573424 -3.647882
4.529322 1.520664 -0.120932
4.537521 1.522739 -0.121868
4.843551 1.161572 -1.453328
-0.880299 1.661377 -1.119880
-0.846605 1.656133 -1.145181
-0.813769 1.657905 -1.228602
-0.802115 1.648991 -1.214805
-0.624564 1.651572 -0.461471
-0.405142 1.673037 -1.085550
-0.350231 1.646031 -0.901672
-0.342637 1.638884 -0.677650
-0.345680 1.645547 -1.576062
-0.250638 1.601590 -0.786777
-0.216423 1.587600 -0.519232
0.106381 1.344858 0.044303
0.151471 1.258881 0.118850
0.066756 1.190085 -0.033753
0.144130 1.237550 0.090157
0.133980 1.120820 -0.056371
0.049922 0.978703 -0.997497
0.244160 1.056564 -1.332028
0.089189 0.737390 -0.711371
0.070348 0.754345 -0.440863
0.139091 0.655920 -0.110548
3.064306 1.589175 -0.950444
2.925333 1.595431 -0.900748
3.696945 1.570669 0.050606
3.388850 1.573550 -3.477765
3.622299 1.573529 -3.552762
3.623966 1.574091 -3.553824
4.086595 1.556518 -0.864154
4.490969 1.538703 -0.137998
4.356897 1.538294 -3.452424
4.975946 1.531110 -0.779333
4.836930 1.551093 0.006002
4.848689 1.114830 -1.474077
4.860413 1.062571 -1.656719
-0.960985 1.648390 -1.003477
-0.833928 1.657555 -1.131973
-0.559137 1.635905 -0.430581
-0.520675 1.673479 -1.108640
-0.462768 1.707945 -0.788095
-0.460845 1.710424 -0.778795
-0.418237 1.667918 -0.769192
-0.344274 1.638237 -0.800972
-0.280066 1.606656 -0.308619
-0.185300 1.601883 -0.762106
-0.270870 1.619504 -1.700021
-0.078414 1.557446 -1.464369
0.050091 1.489987 -1.340272
-0.051114 1.200397 -0.527656
0.509893 1.668145 -2.034574
0.100366 0.793798 -0.158315
0.263655 0.956639 -1.486251
0.250491 0.973115 -1.421555
0.084366 0.791383 -0.801991
0.070045 0.713889 -0.423271
0.124373 0.719346 -0.181907
0.127580 0.631614 -0.252637
0.179277 0.658641 0.078172
2.437092 1.610098 -1.476611
2.451454 1.599801 -1.369979
2.611691 1.596724 -0.850486
2.615522 1.602741 -0.464803
3.157608 1.579723 -0.276019
3.370457 1.586391 -3.518558
3.400531 1.583071 -0.769670
3.385095 1.569499 -0.685782
3.413909 1.565782 -0.690462
3.449557 1.574013 -0.559255
3.851819 1.552923 -3.710417
3.866437 1.582382 -3.676357
4.289760 1.561491 -2.193248
4.351571 1.549319 -1.565722
4.626612 1.517740 -1.809783
4.683666 1.547565 -1.734062
4.521307 1.520400 -0.145860
4.897745 1.511596 -3.150207
4.273797 0.908410 -2.025002
2.647289 1.592825 -1.813290
0.133148 0.621403 -0.276854
0.105948 0.822060 -0.168800
0.120952 0.741215 -0.223443
0.005050 1.573177 -1.414378
-0.346026 1.664216 -1.011499
0.028508 1.226168 -0.081433
0.159488 0.549182 -0.251345
-0.209897 1.599022 -0.428011
-0.302552 1.631927 -1.050631
-0.073169 1.563364 -1.503253
0.001129 1.494728 -1.010294
-0.020714 1.470716 -0.997986
-0.314363 1.720611 -1.019957
-0.432554 1.645068 -0.692687
-0.428352 1.638037 -0.557185
-0.010988 1.545456 -0.939270
0.103990 0.871677 -0.196905
-0.385349 1.628137 -0.444710
0.159737 0.627663 0.055000
3.790350 1.571534 -2.818909
-0.262408 1.602940 -0.826558
-0.311433 1.636427 -0.781242
-0.007152 1.529448 -1.214390
0.112957 1.295941 0.012126
0.093898 0.994927 -0.085350
0.106330 0.514959 -1.369337
2.714881 1.596681 -0.970884
0.178082 0.273704 -0.147300
-0.507213 1.660897 -1.117687
-0.448739 1.756482 -0.996361
-0.414991 1.668638 -0.832642
-0.272818 1.632578 -1.820960
-0.303196 1.644762 -1.515506
-0.248159 1.621836 -0.620874
-0.012784 1.519386 -1.270660
-0.018494 1.153433 -0.560326
0.132958 1.266254 0.050263
0.828762 1.661871 -2.165103
2.795534 1.599163 -0.957024
3.177383 1.596520 -2.017391
3.587701 1.571556 -1.447326
3.914282 1.570734 -2.794577
3.672843 1.580427 -2.559322
4.442398 1.526578 -3.436215
4.522608 1.548371 -1.831372
-0.561274 1.666501 -0.621494
-0.489416 1.643637 -1.110585
-0.140141 1.607954 -1.453008
-0.149721 1.583851 -1.167349
-0.173420 1.586481 -0.307163
-0.056601 1.563464 -1.421926
-0.012547 1.519007 -1.421078
0.120302 1.502833 -1.296719
0.129169 1.278475 0.093599
1.231119 1.672961 -2.226881
0.246692 1.069795 -1.528978
2.526552 1.598128 -1.285529
2.867910 1.590288 -1.213462
2.839460 1.579421 -1.077182
3.427528 1.583506 -1.181467
3.403585 1.575052 -1.175639
3.937709 1.567546 -2.721318
5.549745 1.532236 -1.096159
-0.436688 1.722287 -0.880254
-0.421275 1.673441 -0.760878
-0.318700 1.640636 -1.485907
-0.303756 1.620107 -0.719055
-0.255264 1.632913 -0.574884
-0.247858 1.604481 -0.347665
-0.152080 1.568059 -1.056459
-0.192239 1.582970 -0.802495
-0.081879 1.568186 -1.454002
-0.004560 1.538857 -1.394673
0.001005 1.546003 -1.398890
0.147797 1.467665 -1.347448
-0.056656 1.221407 -0.209714
0.101598 1.365855 0.013381
0.104495 1.356648 0.030010
0.063652 1.200431 -0.084006
0.134298 1.127997 -0.005185
1.050286 1.680832 -2.256151
0.057387 0.937612 -0.975826
0.206164 1.003838 -1.532285
0.111717 0.833000 -0.072833
1.421672 1.648948 -2.292084
0.200426 0.890114 -1.214488
0.167671 0.630664 -0.664206
0.155544 0.600033 0.040461
2.955272 1.576304 -2.014713
2.978471 1.595511 -1.987369
2.798959 1.589184 -1.091494
2.849183 1.590357 -1.008943
3.524519 1.588456 -2.838086
3.534921 1.586120 -2.798421
3.605017 1.569533 -1.488652
4.173850 1.573655 -2.728726
4.765425 1.525428 -1.641913
4.757968 1.538849 -1.618967
5.240130 1.538630 -1.532439
-0.817155 1.659078 0.108649
-0.558480 1.618726 -1.317676
-0.480648 1.642187 -1.129954
-0.427856 1.757105 -1.007403
-0.375702 1.752669 -1.047093
-0.364402 1.754454 -1.038279
-0.457663 1.739546 -0.896997
-0.425381 1.726213 -0.969979
-0.531936 1.654301 -0.604517
-0.327600 1.735384 -1.050448
-0.358545 1.640139 -0.848003
-0.342775 1.640652 -0.801558
-0.390824 1.644743 -0.752419
-0.352531 1.631617 -0.718496
-0.343086 1.638175 -0.677946
-0.313233 1.639204 -0.822632
-0.246725 1.603357 -0.862662
-0.098045 1.608830 -1.530299
-0.187403 1.628747 -1.424772
-0.187403 1.628747 -1.424772
-0.131715 1.584757 -1.391859
-0.213339 1.586495 -0.816344
-0.019821 1.545832 -1.244810
-0.014428 1.507312 -1.145319
-0.014356 1.507135 -1.145135
0.187158 1.483504 -1.324008
0.239197 1.453631 -1.347668
0.608953 1.629927 -1.880419
0.107455 1.304777 0.018347
0.213061 0.983933 -1.535464
0.269151 0.962075 -1.459268
0.068559 0.871576 -0.924199
0.299876 0.958311 -1.524526
0.341519 0.926177 -1.500082
0.079552 0.823312 -0.868110
0.060346 0.765893 -0.458709
0.049550 0.719306 -0.428851
0.120104 0.728920 -0.113768
0.121987 0.812182 -0.080007
0.093819 0.721627 -0.725574
0.100786 0.707520 -0.581286
0.102351 0.706456 -0.551822
0.150275 0.546977 -0.303535
2.381035 1.618283 -2.178540
2.386813 1.611780 -1.545899
2.697840 1.604390 -1.641538
2.550633 1.601979 -0.992377
2.551556 1.602548 -0.880545
2.717627 1.601988 -1.723298
2.897089 1.591398 -1.072571
2.937029 1.591448 -1.014748
0.100842 0.334895 -0.430078
0.159978 0.389345 -0.314755
2.990664 1.596858 -0.293016
2.988069 1.593069 0.105693
3.488738 1.587772 -2.793244
3.432965 1.579863 -1.484932
0.165305 0.317979 -0.199516
3.299870 1.577583 -0.205432
3.387538 1.574180 -0.191555
3.459425 1.576205 -0.213621
3.851710 1.567575 -2.841509
3.632835 1.587090 -2.604768
4.028368 1.561685 -2.199033
3.677792 1.574769 -1.633016
4.466468 1.545442 -3.399916
4.158363 1.558146 -2.742209
4.166042 1.560884 -2.744793
4.233263 1.562905 -2.770322
4.302576 1.551350 -2.211207
4.289113 1.562593 -2.192867
4.379947 1.546383 -1.862444
4.355210 1.558699 -1.634304
4.398287 1.556299 -1.619192
4.458347 1.546428 -1.791685
4.409937 0.943485 -2.275185
0.213072 0.802499 0.070003
-0.154529 1.569996 -1.215643
0.066430 1.151911 -0.168722
-0.059863 1.566967 -0.340702
-0.036561 1.218773 -0.081507
0.111107 0.570401 -0.300799
4.273048 1.555772 -1.826260
-0.280056 1.616374 -0.302216
-0.303650 1.624057 -0.793470
2.469962 1.607902 -1.434045
4.511843 1.544560 -1.827463
-0.137765 1.610699 -1.454236
0.026955 1.127836 -1.071245
2.634896 1.599895 -1.747507
3.686313 1.576892 -2.648140
3.655401 1.577733 -2.481518
4.084749 1.564791 -2.694269
-0.238471 1.605894 -0.754922
2.501158 1.598380 -1.459634
2.504114 1.600257 -1.460631
2.670653 1.597049 -1.545420
3.327359 1.570535 -0.227393
3.550798 1.570716 -0.385800
3.711337 1.576455 -2.644224
3.692657 1.576878 -2.614741
3.695121 1.576708 -2.614764
3.620143 1.580765 -2.444029
3.619598 1.578089 -2.440272
4.203531 1.553923 -2.702341
4.203812 1.553910 -2.702440
-0.264143 1.609302 -0.750867
0.115808 1.285983 0.079384
2.658705 1.595028 -1.323680
2.575781 1.597153 -1.025681
3.132041 1.584591 -0.569492
3.420064 1.581764 -0.522984
3.662386 1.562841 0.012178
4.209173 1.558265 -2.681326
4.315907 1.549705 -2.168921
4.323611 1.552805 -2.171113
4.367129 1.547777 -2.197971
4.585627 1.516632 -1.820437
4.693486 1.550987 -1.737535
-0.055642 1.226979 -0.022602
0.111283 1.328240 0.059488
1.718461 1.650622 -1.108185
1.868479 1.633195 -2.347821
2.238725 1.620689 -1.493036
2.397314 1.608546 -1.211912
2.389232 1.610217 -0.948765
2.358502 1.612409 -0.824422
2.578329 1.606618 -1.797644
2.468906 1.611795 -1.532910
2.666618 1.600686 -1.530258
2.550957 1.601677 -0.992514
3.065364 1.590360 -0.582404
3.318133 1.580536 0.104526
3.671153 1.580805 -2.435258
4.014425 1.568168 -2.744896
0.107513 0.639171 -0.955356
3.368551 1.574628 -1.215535
0.111813 0.576660 -1.357587
0.090767 0.724589 -0.534854
0.167262 0.862193 -0.432431
0.150739 0.808360 0.077999
0.108002 0.690313 -0.497038
0.123690 0.806412 -0.056304
0.127457 0.742137 -0.065163
0.110277 0.736799 -0.083709
0.066185 0.601626 -0.882790
0.124952 0.690002 -0.102123
0.158795 0.690760 -1.365665
0.112644 0.765109 -0.081588
0.072393 0.623869 -0.924485
0.108976 0.682373 -0.412851
0.150308 0.485128 -0.266859
0.050183 0.535229 -1.345434
0.174332 0.679471 -0.381451
0.162574 0.674134 0.047436
0.153367 0.671486 0.072106
0.150505 0.440441 -0.273274
0.076243 0.923778 -0.076279
0.121203 0.844163 -0.272955
0.132104 0.848619 -0.268850
0.125215 0.890617 -0.041489
0.129937 0.816013 -0.194628
0.101185 0.710073 -0.698070
0.111974 0.711628 -0.512944
0.100761 0.608299 -0.906217
4.539323 1.523195 -0.121592
0.094338 0.818346 -0.358836
0.047041 0.634963 -0.951300
0.102821 0.708554 -0.582170
0.133227 0.608237 -0.906280
0.129965 0.339606 -0.295106
0.075730 0.260861 -0.389154
0.119023 0.294611 -0.473732
0.107895 0.346600 -0.385474
5.178306 1.547026 -1.355503
4.998769 1.530523 -0.912977
0.122190 0.738064 -0.629555
0.146412 0.530650 -0.185264
0.096584 0.722769 -0.726078
-0.774426 1.651332 0.091642
-0.056337 1.225588 -0.293538
0.100639 0.782246 -0.184770
0.094438 0.729615 -0.530002
0.249936 0.982133 -1.171841
0.074958 0.826455 -0.897026
0.131471 0.637873 -0.275372
0.130251 0.634355 -0.275466
0.188540 0.896797 -1.194922
0.101145 0.759287 -0.608384
0.073853 0.723872 -0.446648
0.221860 0.721622 -0.243894
0.099711 0.835886 -0.748699
0.103456 0.829883 -0.679947
0.103456 0.829883 -0.679947
0.098228 0.828404 -0.601951
0.114134 0.957835 -0.151991
0.214934 0.690216 -0.222308
0.108249 0.523615 -1.376192
0.197354 0.648754 -0.152646
1.283863 1.674310 -1.676942
0.094402 0.774800 -0.895801
0.097214 0.831823 -0.774801
0.150212 0.833681 0.116638
5.052140 1.516428 -0.833967
5.011386 1.504531 -0.839213
0.151021 0.287681 -0.163499
0.087833 0.783170 -0.880254
0.081698 0.792579 -0.846789
0.064326 0.774235 -0.442031
0.095047 0.622594 -0.960995
0.170465 0.639777 -0.343105
0.155311 0.304341 -0.209676
0.114963 0.717926 -0.765342
0.109903 0.545944 -0.230078
-0.085156 1.586627 -1.480729
1.432977 1.661440 -1.754778
1.758024 1.636936 -1.712985
-0.050412 1.152610 -0.616558
0.128558 1.122338 -0.091760
0.048415 0.608498 -0.873497
0.106661 0.730247 -0.455380
5.110686 1.539256 -1.249414
0.093948 0.716640 -0.704240
3.461518 1.575909 -0.290999
2.522017 1.598872 -1.562582
2.114036 1.622162 -1.336145
3.374581 1.576115 -0.167123
0.106536 0.777317 -0.228765
0.113139 0.317089 -0.345346
0.532199 1.648189 -1.944898
0.104504 0.628415 -1.018580
0.104504 0.628415 -1.018580
0.119794 0.569518 -0.297884
0.169595 0.364415 -0.297845
0.189640 0.620162 -0.111303
0.186218 0.619149 -0.112953
0.170914 0.629785 0.085426
4.311600 1.549108 -1.765627
-0.425436 1.653591 -0.681763
-0.174991 1.570399 -1.077140
0.151195 1.482204 -1.332172
0.151604 1.483224 -1.332150
0.203303 0.287206 -0.456255
5.127977 1.540343 -1.275224
5.047598 1.517458 -0.777254
5.047598 1.517458 -0.777254
-0.580677 1.647288 -0.361885
0.073043 1.496619 -1.321102
0.080461 1.505763 -1.322951
0.196083 1.474909 -1.369419
0.142536 1.105949 -0.053267
0.094674 0.784803 -0.758859
4.511679 1.541837 -1.772295
0.525401 1.661709 -2.025113
-0.005387 1.543176 -0.327996
0.647600 1.621903 -1.818358
1.185657 1.683362 -2.163245
1.352811 1.672831 -2.149094
0.072808 0.609326 -1.366430
0.064060 0.705130 -0.436807
2.502566 1.614332 -0.071541
3.400882 1.571093 -1.429778
4.329419 1.560286 -1.855878
4.654197 1.521830 -1.784323
4.343336 1.557692 -1.600542
4.685329 1.544110 -1.604981
4.702699 1.546238 -1.604326
5.317258 1.527043 -1.529199
5.535185 1.528109 -1.043474
5.788732 1.515664 -0.730689
-0.177568 1.629107 -1.419420
-0.141637 1.602861 -1.427801
-0.231164 1.604240 -0.739287
0.504322 1.669169 -2.058450
0.518641 1.662410 -2.040899
0.551847 1.663909 -2.029430
0.818362 1.669435 -2.175474
1.117519 1.677144 -1.936706
0.113596 1.301315 0.073998
1.360456 1.667318 -2.137919
1.360456 1.667318 -2.137919
0.200412 0.889942 -1.215074
0.075363 0.828563 -0.876087
2.613989 1.596271 -1.636736
2.372961 1.608280 -1.062887
2.782773 1.595611 -0.945860
2.796129 1.595950 -0.820393
2.769168 1.597370 -0.774637
3.067038 1.586110 -1.228020
3.110208 1.584526 -1.231684
3.080066 1.593277 -0.952876
3.429481 1.558734 -0.714764
3.553512 1.577745 -0.245419
4.386160 1.550660 -1.866490
4.401842 1.556788 -1.864549
4.436445 1.550125 -1.751102
4.534435 1.542210 -1.770989
4.564262 1.530270 -1.780112
-0.228002 1.603218 -0.686458
-0.039725 1.537423 -1.165121
0.085475 1.491007 -1.320416
0.310911 0.955483 -1.501569
0.353925 0.915576 -1.499707
0.068462 0.755048 -0.443349
0.101601 0.699256 -0.621300
2.647621 1.605414 -1.827635
2.657976 1.600688 -1.814050
2.421105 1.605877 -1.590953
2.580547 1.602053 -1.433624
2.478309 1.595744 -1.327126
2.523731 1.601950 -1.250141
2.391154 1.610844 -0.845043
2.377207 1.609932 -0.393915
0.140438 0.511807 -0.116281
3.000519 1.589307 -1.982846
2.697155 1.596618 -1.307101
2.660823 1.603235 -1.144142
3.166641 1.582902 -1.089607
3.248810 1.591371 -0.254402
3.248810 1.591371 -0.254402
4.162620 1.560742 -2.146177
4.162620 1.560742 -2.146177
4.325492 1.548583 -1.891010
3.712929 1.562484 -0.143965
4.408255 1.544973 -1.848195
4.415279 1.534898 -1.831107
4.452048 1.543711 -1.788339
4.592615 1.546830 -1.756772
4.683805 1.550159 -1.650574
5.268167 1.553378 -1.555292
5.305728 1.501658 -1.515680
0.161909 0.629075 0.053856
3.132910 1.584603 -0.592214
-0.042583 1.138215 -0.587124
-0.035128 1.133970 -0.546434
0.075445 0.652884 -1.044363
0.125885 0.664554 -0.016032
0.167977 0.610457 0.069877
1.858357 1.640149 -1.283645
3.231512 1.599416 -0.320237
3.221096 1.587531 -0.276559
5.494994 1.533521 -0.861673
0.258730 0.977051 -1.481395
0.134763 0.656181 -0.077727
0.133874 0.656123 -0.077585
1.988927 1.627515 -1.321912
2.625669 1.594826 -1.743786
2.558731 1.594223 -1.590443
3.348099 1.581708 -0.961493
4.494887 1.552305 -1.730341
0.006675 1.220762 -0.063628
0.117002 0.729454 -0.132161
0.111615 0.726690 -0.133895
1.603495 1.654231 -1.498927
0.145859 0.641377 0.048079
2.048346 1.628716 -1.196332
2.161631 1.619552 -1.267360
2.194528 1.617464 -1.247801
2.329263 1.610946 -1.081520
2.336927 1.613029 -0.915941
2.330998 1.609449 -0.915735
2.578228 1.600521 -1.509734
2.648225 1.599678 -0.567639
3.550332 1.571282 -0.386078
4.378073 1.549466 -1.660992
4.366169 1.545623 -1.659759
4.687789 1.547526 -1.766610
4.645712 1.519372 -1.782409
4.511653 1.543737 -0.181771
-0.016334 1.462842 -0.909329
0.020240 1.187235 -1.043620
-0.050056 1.147701 -0.605131
0.036693 1.046818 -1.059672
-0.004270 1.136998 -0.605072
-0.014915 1.122683 -0.587019
0.083444 0.785586 -0.829893
0.112166 0.704487 -0.701576
1.783018 1.644473 -1.071592
1.854357 1.644419 -1.139076
2.091300 1.625487 -1.287772
2.315512 1.616472 -1.698657
2.279436 1.610086 -0.968378
2.470176 1.600257 -1.545526
2.469382 1.599665 -1.545257
2.592231 1.599623 -0.957047
3.068803 1.592271 -0.885208
3.697568 1.562354 -1.643387
0.008605 1.265649 -1.050155
0.051805 1.048025 -0.302437
0.083621 0.749727 -0.481349
1.794239 1.641256 -1.479164
1.769649 1.645431 -1.343055
1.756378 1.652237 -0.924279
2.356756 1.612421 -1.513577
2.409258 1.609223 -1.474759
2.250759 1.614848 -0.897807
2.106649 1.632802 -0.345497
2.578484 1.605080 -1.702479
2.564553 1.606559 -0.790582
2.649484 1.598889 -1.301213
2.651139 1.595875 -0.413710
3.141725 1.589713 -1.981970
3.001860 1.589414 -1.253382
2.960046 1.593563 -0.925238
2.895249 1.597242 -0.020370
3.417667 1.585277 -1.177465
3.067740 1.588709 -0.597216
3.277962 1.591365 -0.281199
3.585139 1.571572 -1.518299
3.390230 1.582072 -0.164206
3.547930 1.574655 -0.264500
3.745756 1.567391 -0.063915
4.481787 1.529511 -1.793557
4.693644 1.550682 -1.738002
5.109878 1.522844 -0.779845
0.005122 1.287513 -1.044791
-0.040678 1.158845 -0.589821
0.031134 1.103544 -1.056359
0.033375 1.088303 -1.053501
0.033339 1.088247 -1.053498
0.034741 1.066715 -1.055050
0.057428 0.920313 -0.965068
0.093303 0.823460 -0.759656
1.728264 1.638450 -1.747510
1.917839 1.631175 -1.724007
1.848985 1.639606 -0.962897
2.178103 1.615930 -1.217340
1.983661 1.637014 -0.434205
2.609400 1.599605 -1.161287
2.382898 1.613286 -0.967712
2.353045 1.616842 -0.811116
2.439043 1.609802 -0.415959
2.418523 1.615976 -0.276345
2.480418 1.611623 -0.267517
2.350513 1.619525 -0.139382
2.934787 1.594089 -1.996157
2.824265 1.584823 -1.273142
2.854419 1.587839 -1.292907
2.874869 1.599788 -0.682893
3.196522 1.585939 -1.120928
3.496696 1.580680 -0.400747
4.375079 1.552310 -1.891887
4.396225 1.554971 -1.618189
4.705017 1.556185 -1.720562
4.730006 1.553707 -1.700534
2.450208 1.601249 -1.245417
1.721665 1.642828 -1.609422
0.081691 1.174715 -0.595905
0.002230 1.480107 -0.360291
0.124698 0.275967 -0.449000
0.198286 0.289897 -0.480211
1.154857 1.674200 -1.688277
2.392460 1.607258 -1.587630
2.392460 1.607258 -1.587630
1.908765 1.637173 -1.686056
0.081284 0.731546 -0.400520
0.148869 0.656825 -0.133880
0.160787 0.781830 0.075032
0.147655 0.439984 -0.272132
2.508603 1.614537 -0.270281
0.079655 0.724362 -0.347848
2.228634 1.614989 -1.478214
2.372705 1.609017 -1.549743
1.983123 1.632083 -0.351988
2.925322 1.596570 -0.901608
2.635906 1.606606 -0.495934
2.311206 1.613048 0.055200
5.562965 1.537176 -1.094608
0.644804 1.632492 -1.732813
2.404993 1.608108 -1.520409
2.411281 1.607843 -1.238873
2.294964 1.616264 -0.842211
2.284806 1.617157 -0.760196
2.284806 1.617157 -0.760196
0.150472 0.431798 -0.283452
2.616433 1.601620 -0.849150
3.048430 1.590009 -0.626336
0.508915 1.601290 -1.589071
1.092704 1.689980 -1.803007
1.315928 1.677854 -1.629999
0.041943 1.208725 -0.167713
0.100526 0.626191 -0.968253
0.090981 0.623933 -0.957552
1.923962 1.631021 -1.421163
2.181888 1.617347 -1.396952
2.099732 1.623835 -1.156297
0.127157 0.579496 -0.268184
2.545563 1.591949 -1.633080
2.344072 1.613073 -1.194208
2.173132 1.622259 -1.141025
2.123659 1.628167 -0.973622
2.695325 1.599923 -1.342232
2.559082 1.602064 -1.043602
2.413506 1.608099 -0.979860
2.596539 1.602125 -0.956843
2.055758 1.626265 0.040753
2.493230 1.608893 -0.073671
3.575611 1.565516 -1.540445
3.575611 1.565516 -1.540445
3.212474 1.583610 -1.082649
3.160152 1.583061 -0.320335
4.326320 1.553346 -0.631936
5.495783 1.524949 -0.786217
0.034675 1.080941 -1.033312
1.520050 1.658161 -1.806941
0.074792 0.810073 -0.870035
0.079994 0.639064 -0.972082
0.098964 0.728887 -0.582557
1.889500 1.640033 -1.605022
1.889500 1.640033 -1.605022
1.767459 1.644151 -1.342711
0.100395 0.728984 -0.569142
0.054360 0.717481 -0.416856
2.086748 1.623016 -1.489426
0.128580 0.747169 -0.216738
2.326063 1.617415 -1.670848
2.145960 1.619121 -1.319411
1.816399 1.645082 -0.849297
1.637677 1.646110 -0.277459
1.612917 1.646771 -0.146373
2.435220 1.605517 -1.626829
2.532727 1.599488 -1.476664
2.163402 1.618612 -0.991225
2.074571 1.626614 -0.772232
2.715577 1.595437 -1.650429
2.671110 1.599005 -1.611387
2.662783 1.596512 -1.324184
2.512916 1.599326 -1.278632
2.383390 1.609557 -1.008930
2.389332 1.612585 -0.815720
2.240468 1.616955 -0.777356
2.195333 1.622788 -0.670256
2.059983 1.630129 -0.335209
0.097716 0.337868 -0.408508
2.530923 1.609394 -0.921508
2.526685 1.605365 -0.438733
2.477799 1.608558 -0.371047
2.429034 1.612797 -0.355154
2.214951 1.620932 -0.298531
2.960326 1.584090 -1.252293
3.080104 1.589534 -0.954996
2.995290 1.585926 -0.885097
3.001513 1.588573 -0.885206
2.960218 1.590760 -0.857044
3.378316 1.578494 -1.503669
3.585769 1.571729 -1.518402
3.166968 1.583935 -1.037263
2.872164 1.594311 -0.130006
2.900059 1.598244 -0.019178
3.399179 1.568130 -0.611349
4.046973 1.559895 -0.823721
3.751419 1.565417 -0.084357
3.767514 1.559896 -0.001229
5.123866 1.552294 -1.231672
4.520851 1.541985 -0.178725
0.026933 1.143811 -1.047529
-0.009748 1.518505 -0.329568
0.038310 1.049742 -1.051091
0.326252 0.941785 -1.495876
1.557743 1.650082 -1.573579
0.100927 1.095355 -0.114209
0.095030 0.727203 -0.738503
0.097810 0.718390 -0.691041
1.917754 1.630866 -1.724038
0.100276 0.712060 -0.572412
0.100990 0.712432 -0.571852
0.049532 0.718454 -0.426257
1.868021 1.637128 -1.145854
1.835998 1.642184 -1.023044
2.412950 1.609916 -1.666495
2.058384 1.625517 -1.310272
2.191963 1.613559 -1.322929
1.978487 1.625250 -1.163036
1.640948 1.648396 -0.437215
2.417098 1.609264 -1.559019
2.537232 1.601902 -1.498906
2.537232 1.601902 -1.498906
2.489811 1.604216 -1.470613
2.107392 1.619563 -0.768179
2.442334 1.602007 -1.226576
2.549645 1.601902 -1.225803
2.591042 1.597435 -1.169565
2.235757 1.615904 -0.757390
2.218496 1.622907 -0.726185
2.256472 1.621274 -0.664770
2.188452 1.604621 -0.581285
1.998867 1.627469 -0.300586
2.799008 1.596683 -1.109268
2.816407 1.599513 -0.995486
2.547099 1.604473 -0.971782
2.723485 1.591980 -0.978514
2.507842 1.610934 -0.383094
2.394880 1.613225 -0.293447
2.262516 1.619071 0.094184
2.473702 1.610789 -0.248284
3.436724 1.580761 -1.450777
2.925806 1.594677 -0.015458
3.349968 1.576410 -0.615328
3.067454 1.592609 -0.101944
3.534550 1.569295 -0.221229
3.978245 1.553890 -0.404774
5.451655 1.543038 -0.819410
5.768710 1.550114 -0.753225
0.598754 1.635176 -1.876705
1.718267 1.646077 -1.564880
1.261921 1.677898 -1.871941
0.148970 0.524679 -0.251549
-0.212017 1.597559 -0.414252
-0.349196 1.620336 -0.416734
0.112285 0.629501 -0.336400
0.048174 0.599021 -0.376836
-0.449445 1.652370 -0.658130
0.130463 0.587209 -0.306677
-0.589395 1.649014 -0.380045
-0.589395 1.649014 -0.380045
1.058532 1.689695 -1.771940
1.154760 1.685597 -1.774371
0.106442 1.130779 -0.104673
-0.400779 1.659120 -0.757238
-0.338008 1.627976 -0.383490
0.186398 1.479526 -1.365206
0.933899 1.655323 -1.781407
0.145246 0.861320 -0.526947
2.723099 1.586239 -1.611971
2.436830 1.613789 -1.524403
2.580144 1.597621 -1.481140
0.127461 0.553191 -0.245219
0.682860 1.639842 -1.926299
0.785416 1.632994 -1.648232
0.271061 0.970825 -1.447157
1.718000 1.632448 -1.862174
0.017968 1.210657 -0.013583
0.093395 0.850532 -0.340779
0.115909 0.828578 -0.128848
2.553307 1.598606 -1.590129
2.858792 1.588675 -1.088717
0.192122 0.619196 -0.044029
-0.569542 1.644710 -0.438859
-0.055641 1.553834 -1.148720
0.535464 1.589879 -1.518999
1.330233 1.670138 -1.708261
0.280777 0.965038 -1.459487
-0.035269 1.226223 -0.042999
0.122191 1.218751 -0.065740
0.137509 0.858519 -0.479343
2.169671 1.621584 -1.430229
0.076287 0.768970 -0.358600
2.679665 1.600530 -1.641449
2.602070 1.592627 -1.547055
2.858809 1.598773 -1.020205
0.146588 0.458433 -0.276765
3.283284 1.581859 -0.231737
3.300869 1.594057 0.013337
4.972867 1.535075 -0.884900
5.777692 1.533492 -0.781814
-0.413173 1.675696 -0.772432
0.186287 1.590546 -1.897450
-0.075837 1.602317 -1.447636
-0.312462 1.650316 -0.614403
-0.709502 1.641298 0.102461
0.539885 1.595418 -1.576063
1.322799 1.684041 -2.086583
1.130908 1.673859 -1.902540
1.065557 1.681416 -1.810989
0.124340 1.096385 -1.392433
0.124082 1.082887 -1.377773
1.191562 1.683727 -1.803671
1.242032 1.678519 -1.762630
-0.069145 1.206745 -0.291629
0.127245 1.152616 0.056274
0.099277 0.834920 -0.603456
2.374978 1.609838 -1.683974
2.424196 1.612865 -1.618473
2.498016 1.601026 -1.584058
2.607350 1.583804 -1.595213
2.639954 1.582820 -1.580667
2.642682 1.582218 -1.580997
2.286305 1.619768 -0.733138
3.139046 1.585854 -0.591965
3.474022 1.573718 -0.863529
3.444922 1.570475 -0.557501
3.407957 1.581963 -0.523569
3.407957 1.581963 -0.523569
3.334193 1.577055 0.024214
5.491215 1.524089 -0.787241
-0.094523 1.583493 -1.472385
-0.034395 1.541369 -1.307095
-0.314651 1.626928 -0.680876
-0.314651 1.626928 -0.680876
0.553322 1.606032 -1.550175
0.553322 1.606032 -1.550175
1.088103 1.689762 -2.022457
0.006958 1.279317 -1.030748
1.122143 1.683940 -1.917478
1.116929 1.685303 -1.745761
1.361500 1.669058 -2.122966
1.152204 1.682045 -1.761277
1.262507 1.684074 -1.645997
0.126594 1.076594 -1.368767
0.029840 1.121561 -1.041629
1.434676 1.662449 -1.734506
0.242133 0.960283 -1.439359
-0.000538 1.145783 -0.618254
1.492707 1.658204 -1.655395
0.130841 1.235672 -0.079742
1.721106 1.639110 -1.705813
1.772303 1.641716 -1.400492
1.767615 1.639643 -1.400969
0.135536 1.145114 0.027557
0.132179 1.156066 0.042290
1.933652 1.629608 -1.637625
2.000102 1.628018 -1.530398
0.134186 1.135334 0.013329
0.061158 0.738480 -0.449733
2.614471 1.595917 -1.638411
2.520309 1.597366 -1.600995
2.665224 1.593774 -1.540794
2.536018 1.598905 -1.456630
2.331880 1.613491 -0.883904
0.065765 0.706270 -0.432716
2.798893 1.597338 -1.093185
2.783461 1.594992 -1.075937
2.961743 1.593802 -0.925137
0.141866 0.550555 -0.222359
3.730823 1.570377 -1.610030
3.746939 1.557864 -1.615353
3.745165 1.556753 -1.615083
3.579767 1.574251 -1.498123
3.390606 1.582221 -1.124001
3.252469 1.581011 -1.116095
3.056576 1.582535 -0.900741
3.358035 1.584341 -0.263781
3.158231 1.587100 -0.186513
4.315504 1.553398 -1.532195
3.693900 1.568023 0.050039
5.803631 1.543942 -0.714183
1.836324 1.638433 -1.277503
0.663624 1.119740 -1.423379
-0.468509 1.666533 -0.696854
1.643092 1.642298 -1.474792
2.140659 1.620557 -0.266610
2.572236 1.613263 -0.095346
2.051286 1.625280 0.041365
0.070912 0.752706 -0.459525
0.061131 0.767628 -0.439949
0.142009 0.486064 -0.282893
1.507007 1.656325 -1.826664
1.119880 1.689171 -1.590165
0.499101 1.593666 -1.449297
1.809501 1.639540 -1.729316
1.842029 1.638234 -1.636550
1.200749 1.687500 -1.414621
1.812225 1.638066 -1.383927
1.417659 1.674995 -1.117638
-0.412577 1.640660 -0.432954
1.895802 1.631323 -1.271117
1.418716 1.676698 -0.962475
2.267085 1.619415 -0.781222
1.390754 1.669641 -1.561520
0.642037 1.146904 -1.444411
1.302028 1.685164 -0.973584
2.114120 1.626702 -0.750104
1.998764 1.634714 -0.706288
2.071151 1.625975 -0.271799
2.621015 1.601453 -0.471057
2.498248 1.611811 0.096811
-0.209083 1.168918 -0.274629
-0.874249 1.655105 -0.984808
1.266290 1.684504 -1.212824
1.169921 1.692648 -1.198338
1.169921 1.692648 -1.198338
2.087970 1.622682 -1.092308
1.647313 1.654310 -1.095270
1.647313 1.654310 -1.095270
2.172739 1.617491 -1.049103
-0.495697 1.692590 -0.696886
2.249712 1.617642 -0.817891
1.831977 1.634637 -0.814504
1.717732 1.646509 -0.836334
1.536516 1.662547 -0.740851
1.175579 1.704919 -0.647394
-0.518438 1.654438 -0.574196
2.546949 1.605387 -0.531549
2.286666 1.618865 -0.523753
2.120048 1.628544 -0.308743
1.786627 1.646447 -0.304350
3.056421 1.592554 0.089503
2.006947 1.624799 -1.522521
1.448374 1.662023 -1.426916
2.094830 1.620574 -1.422996
1.827636 1.636124 -1.337907
1.501324 1.660781 -1.319538
1.434810 1.668269 -1.353935
2.036544 1.621369 -1.273671
1.751828 1.639786 -1.294328
1.776257 1.647541 -1.206790
1.390867 1.675275 -1.130376
1.041574 1.705335 -1.133698
1.041663 1.705215 -1.133525
2.229361 1.618626 -1.129905
1.962125 1.631256 -1.102107
1.938183 1.634976 -1.123422
1.305113 1.684447 -1.039367
1.342551 1.680256 -0.960675
1.211816 1.690881 -1.036995
1.236966 1.688585 -1.001668
-0.467273 1.742849 -0.874089
-0.482533 1.710636 -0.808701
2.122673 1.624992 -1.020812
1.211827 1.694702 -0.914670
1.943126 1.630153 -0.821691
1.984114 1.630110 -0.746404
1.505968 1.661918 -0.712120
1.886610 1.639550 -0.614273
2.357818 1.615509 -0.555481
2.132933 1.626906 -0.466328
2.593746 1.599739 -0.379469
2.485975 1.607993 -0.405443
2.462148 1.614476 -0.335745
2.462148 1.614476 -0.335745
2.317556 1.613896 -0.308196
2.044677 1.630519 -0.242936
1.535608 1.663116 -0.133115
2.050473 1.622967 0.040446
1.846371 1.638467 -0.040960
1.918908 1.637162 0.049693
2.359097 1.617283 0.071234
2.359098 1.617151 0.071212
0.171179 0.371516 -0.292682
0.152632 0.355609 -0.295564
0.809834 1.137984 -1.401443
0.117234 0.888145 0.117662
0.146885 0.600190 -1.040373
0.067012 0.603881 -0.880035
0.143304 0.352329 -0.297764
1.494494 1.661469 -1.381126
1.946245 1.628890 -1.342394
0.163316 0.380629 -0.296102
1.176017 1.695583 -1.164998
0.109463 0.812968 -0.173532
0.132940 0.661272 -0.029171
