ply
format ascii 1.0
element vertex 1700
property float x
property float y
property float z
end_header
-22.213484 1.201146 1.247864
-6.835189 -1.963464 33.966096
-22.697912 1.081272 0.977181
-7.128319 -2.469450 33.246683
-12.328416 0.347922 -4.413486
-2.049477 -6.975765 77.070749
-10.809200 0.558819 -4.921775
6.049108 -7.416061 25.588449
-11.518541 0.262776 -5.626002
5.857565 -7.119111 24.457022
-18.182076 0.810022 7.948815
-1.530136 1.547417 3.859645
-12.830030 0.030728 -3.722904
-2.065685 1.555213 3.813912
-11.930939 0.081049 -5.865005
-2.418853 1.551792 4.192337
1.324254 1.689889 1.181607
-2.161235 1.509570 4.873818
-2.538532 1.493213 5.944496
1.344473 1.695673 0.888438
-1.031452 1.469912 8.027976
5.860121 0.646057 6.454589
1.039385 1.700491 0.865865
5.211414 0.224972 8.023430
0.949879 1.701052 0.176829
3.496975 1.057324 21.429666
0.859320 1.691004 -1.241474
-7.394462 1.331788 31.137187
0.350832 1.501735 -0.971827
-0.756809 0.784982 35.240760
-10.011125 0.102921 33.153360
0.498084 1.128981 -0.160513
-10.411909 0.341699 32.256734
0.501632 1.126463 -0.160610
4.732113 -0.765361 15.001278
2.086817 -0.444387 25.476141
-8.712426 -0.124847 32.842876
4.832007 -1.716827 15.612149
-1.965236 -5.565564 75.266978
-1.184533 -7.285898 77.787709
3.140007 -4.296375 22.174483
3.137300 -4.292828 22.220044
-2.891405 -11.061139 78.192425
0.470333 1.114221 1.152151
-2.533449 1.475886 4.699617
-8.410234 1.592796 -4.934257
5.139200 1.602300 6.875754
-8.238325 1.630090 -5.529262
0.170994 0.302573 0.552080
-8.255424 1.632618 -5.536850
-2.836806 1.494645 5.334042
-10.709438 1.590941 -0.997204
0.180081 0.258164 0.586161
-10.580410 1.603073 -3.032593
-3.412947 1.529910 6.350968
-10.623295 1.519008 -3.149366
5.654593 1.098014 6.381980
-3.769485 1.542325 8.604252
-10.030326 1.429558 -5.466709
-3.901823 1.499999 8.919774
-10.345033 1.265315 -5.670280
-4.784879 1.509269 9.379747
-10.574813 1.598591 6.455796
-3.343826 1.477989 10.158012
-12.272556 1.517366 -0.404463
-4.771142 1.514000 10.010196
-11.849580 1.585837 -1.038549
-2.968792 1.489235 16.549692
-12.038119 1.340501 -1.534406
-2.986894 1.499900 16.678551
-11.087470 1.346852 -3.063204
-3.230782 1.494330 13.332429
-11.177413 1.117854 -3.076947
-4.560226 1.530052 14.670020
-10.679227 1.127092 -3.897320
5.747620 0.973553 15.940576
-10.540986 1.142977 -3.905263
-6.188996 1.179138 32.501981
-21.433956 1.480271 2.221161
-6.657444 0.948027 31.935406
-11.479997 0.832703 -2.834942
-5.978594 0.611597 32.954509
-11.213386 0.806139 -3.474348
-7.091754 0.387431 31.625988
-10.863821 0.636997 -4.441958
-9.149497 0.142569 32.523515
-10.419836 0.905249 -4.562671
-8.885297 0.823450 31.206662
-10.568264 0.790128 -4.975462
-6.087111 -0.082964 33.760445
-18.569252 1.139086 9.550592
-7.084312 -0.706630 34.104302
-19.352382 1.258105 6.852728
-7.700649 -0.447224 33.013559
-18.778832 1.030461 6.782881
-8.316798 -0.304317 32.776006
-24.470820 1.473910 4.310103
-10.695204 -0.432669 32.939450
-8.789637 0.453249 1.433823
6.196623 -1.378362 14.666305
-23.491082 1.391938 2.700210
5.669824 -1.019362 14.994397
-21.431690 1.055567 0.367846
-5.890848 -1.113809 34.046867
-5.911747 -1.409400 34.374829
-11.530447 0.618103 -2.624475
-11.219716 -1.065795 33.362067
-12.704622 0.310789 -4.161478
5.899354 -1.658521 14.782272
-11.077458 0.303124 -5.079926
-10.850467 0.532749 -5.464875
1.579232 -2.438371 21.237740
-12.067564 0.209684 -6.061057
1.704054 1.649658 2.372368
-11.743808 0.509369 -6.997870
1.471364 1.671351 2.564981
-18.558564 0.939212 9.057258
-1.298437 1.592285 2.422457
-18.383468 0.888348 8.372496
-1.786377 1.590611 3.341499
-13.300225 0.171502 -3.309366
-2.248704 1.554689 3.800554
-12.670407 0.237883 -4.119061
-2.248704 1.554689 3.800554
-12.813475 0.030251 -3.794775
1.392820 1.639087 5.100033
-12.290720 0.243539 -4.453857
-1.891301 1.533902 4.825291
1.536590 1.660370 -0.681001
-1.891301 1.533902 4.825291
1.422000 1.676512 -0.075812
-1.944604 1.514876 4.967071
1.126053 1.697069 -1.266884
-2.565780 1.527762 4.618600
1.093924 1.699773 -1.410917
-2.615981 1.512414 4.743337
1.275611 1.703147 1.120168
0.258886 1.484801 6.230994
1.190187 1.704543 0.816470
-2.445867 1.509512 6.032969
1.122365 1.710061 0.382480
-2.091416 1.467713 6.350975
-3.387436 1.507294 6.486395
0.988625 1.671715 -1.465928
0.597515 1.539808 8.789026
1.061721 1.701178 0.792430
0.388274 1.431853 9.059404
1.063220 1.699487 0.791912
-0.044644 1.594326 9.588743
1.035913 1.703704 0.795251
-0.600492 1.501292 8.524102
1.013552 1.714323 0.159263
-1.828903 1.491914 8.965099
0.991647 1.708635 0.089952
-2.537191 1.493589 8.357940
0.981597 1.702625 -0.105162
-2.728824 1.475095 9.647621
0.981597 1.702625 -0.105162
4.985973 0.955291 7.381155
-0.261279 1.537848 10.696811
-0.612193 1.520359 12.296821
0.889593 1.698948 -1.110576
-1.031223 1.484667 11.952060
0.920197 1.700757 -1.243955
5.987463 1.526646 15.046602
0.999362 1.670841 0.792289
5.313492 1.542346 15.329558
0.926343 1.657516 0.731966
-2.759915 1.507300 15.365793
0.969097 1.656609 0.653332
-4.555328 1.499965 13.004192
0.956906 1.647969 0.606857
-5.680968 1.520731 14.955133
0.912027 1.692539 0.250284
-6.381495 1.533814 16.861269
0.806935 1.674719 -0.814711
-6.323916 1.631555 15.820502
0.962449 1.568520 0.918827
-6.558994 1.499039 15.726007
0.954227 1.556924 0.888305
-7.429211 1.543806 16.101122
-7.429211 1.543806 16.101122
0.883436 1.561138 0.657327
5.452894 0.320254 6.713101
0.926022 1.615695 0.553652
-10.505607 1.498154 23.542714
0.924797 1.616295 0.553831
3.744452 0.373319 17.072248
0.906136 1.545420 0.701068
-8.194542 1.407833 31.257469
0.873133 1.140090 -0.814111
-9.301224 1.080287 31.330163
0.812864 1.145236 -1.393594
-8.447175 0.939115 21.001514
0.864793 1.127670 -0.541963
-6.073242 0.817788 32.948924
0.906284 1.133995 -0.573164
-6.447528 0.852573 32.493765
0.884838 1.142298 -0.620217
-8.203977 0.597056 31.707651
0.811372 1.118494 -0.669716
-8.875141 0.552314 31.660494
0.811372 1.118494 -0.669716
-9.548909 0.211720 32.438069
0.859223 1.135978 -0.837544
5.716445 -1.454691 14.782115
0.492621 1.092515 1.027239
5.504948 -1.270641 15.090555
4.130490 -0.987229 16.492659
0.393917 0.961313 1.160485
-1.747508 -2.301250 42.611114
0.369176 0.954340 1.157416
-8.221124 -1.035875 34.416024
-8.566490 -1.053616 34.062265
-5.875506 -2.188862 34.492690
-7.157193 -2.712753 35.357703
5.689261 -2.389462 15.561215
-1.311267 -9.793132 77.119270
0.164216 0.570100 -0.193570
-2.905265 -9.031256 77.015987
0.164616 0.608196 -0.911531
-1.657256 -3.056110 7.206467
0.143721 0.601126 -1.035593
-1.062942 1.601622 2.824520
3.607126 1.551274 3.277123
-9.240366 1.589380 -4.058943
3.558121 1.558139 3.335271
-9.048584 1.562864 -4.896536
-1.586326 1.569600 3.390953
-8.980038 1.567091 3.171861
3.497427 1.555207 3.894885
1.912538 1.639771 4.508348
-9.562545 1.546396 -3.851560
-2.047150 1.587087 3.687686
-9.639162 1.548549 -4.479876
-1.949230 1.527779 4.452400
-10.022096 1.383227 -5.127820
6.100696 1.584431 6.108865
-10.318158 1.388216 -6.391552
5.152855 1.432876 6.930463
-13.257532 1.621209 6.321949
1.228173 1.573935 7.295538
-2.088368 1.474800 6.112033
-11.733662 1.464976 -1.576477
-3.486045 1.489945 6.494515
6.594530 0.902490 6.392886
-11.283166 1.253936 -2.620958
5.575822 1.142408 6.354530
-11.201278 1.100992 -2.834131
0.573882 1.534397 8.271050
-10.960783 1.167171 -3.430733
0.195591 1.491763 8.976877
-10.915566 1.168942 -3.637096
-2.643862 1.482538 8.711641
-10.665170 1.306858 -4.075565
-3.595104 1.523587 8.047171
-10.181263 1.074054 -4.304153
6.935020 0.773603 6.359985
-10.308091 1.251895 -5.369043
-0.113868 1.552744 12.916597
-10.421959 1.156794 -5.266274
-3.267593 1.482119 11.994695
-10.493835 1.118325 -5.306725
-3.273052 1.485390 12.021070
-10.393688 1.114466 -5.519778
-0.989280 1.568258 17.282201
-10.602631 0.989081 -5.605573
-0.989748 1.571185 17.286268
-10.401660 1.175662 -5.636604
-1.848643 1.509525 17.936161
-10.583265 0.926451 -6.212156
-2.556725 1.522284 17.414236
-10.561303 0.926338 -6.201984
-2.507779 1.494064 13.699516
-10.597479 1.174793 -6.852849
-3.313665 1.515465 17.415738
-10.516764 1.111195 -6.771173
-3.313665 1.515465 17.415738
-10.476429 1.107688 -6.750535
-3.431797 1.469817 16.611274
-3.446091 1.473832 16.666150
-11.661798 0.850564 -2.297126
-5.798589 1.544157 17.104306
-11.556843 0.825828 -2.795823
-6.277037 1.516132 14.925619
-7.302532 1.529638 16.237423
-11.298366 0.852810 -3.465521
5.351095 0.246174 6.901294
-10.984151 0.820819 -3.643261
4.317561 0.727704 16.135310
-10.670428 0.753746 -4.348162
-3.749160 1.496345 18.853305
-10.447326 0.919194 -4.637952
-6.228839 1.462809 21.974514
-10.620523 0.892036 -5.419158
-7.853877 1.565413 20.971818
-10.728495 0.817032 -5.504352
5.919374 0.404890 15.110614
-10.786587 0.792208 -5.638922
5.918743 0.404354 15.106268
5.041970 0.090196 14.906976
-10.714415 0.555342 -5.787214
1.496150 1.015927 34.228931
-10.535136 0.791311 -6.009693
-2.205802 1.558064 31.344685
-19.819490 1.140919 10.928857
-3.253027 1.299972 33.101364
-18.180829 1.275804 9.562451
-6.929142 1.358901 31.499230
-18.235186 1.086146 7.768680
-7.448063 1.409271 31.048837
-22.174859 1.106314 0.900185
-7.183194 1.067588 31.170315
-21.902254 1.256798 0.745493
-7.659529 1.013624 31.201199
-21.293961 1.104773 0.288163
-8.128357 1.078356 31.128091
-12.507181 0.481629 -1.529304
3.468645 0.094155 16.329959
-12.507181 0.481629 -1.529304
2.728142 0.331433 22.487907
-11.518853 0.658785 -3.100678
2.184962 0.156951 25.626050
-12.560931 0.412391 -4.115233
-5.443282 0.110137 33.738955
-12.768666 0.319451 -4.091560
-6.853044 0.611559 31.832075
-11.014258 0.588620 -4.143299
-6.360729 0.399913 32.837291
-11.046526 0.623638 -4.229990
-7.202967 0.927369 31.543216
-10.921384 0.448083 -4.849655
-11.890104 0.862174 32.182020
-10.792175 0.411135 -4.775937
-11.567649 0.319103 33.036954
-10.774114 0.390155 -4.970151
-11.864948 0.375798 33.094545
-11.110268 0.399789 -5.362959
-3.744587 -0.487735 33.286357
-11.386608 0.393446 -5.704949
-5.725987 -0.516579 33.863086
-18.714170 0.818622 9.167975
-6.978312 -0.468784 33.251382
-18.162941 0.584159 8.039252
-7.335643 -0.676001 33.431014
-18.376690 0.831492 7.730714
-7.347231 -0.066419 32.852977
-19.125620 0.819550 6.679850
-8.905039 -0.378453 33.231895
-19.382341 0.605176 6.844066
-9.705489 -0.649400 34.710324
-19.402898 0.789141 6.480641
-10.875782 0.012821 33.436825
-19.687157 0.849058 6.299749
-10.726987 -0.260081 33.803175
-19.482061 0.524913 6.431412
-10.925740 -0.813901 33.648258
-20.794783 0.648890 5.793406
6.085322 -1.410759 14.713005
-23.295578 0.494608 5.965894
-14.252408 0.090480 -2.281590
-6.035533 -1.740374 34.247161
-14.010381 0.181956 -2.470174
-6.550601 -1.048907 33.526136
-13.182478 0.209557 -3.262853
4.175503 1.534283 2.327701
5.594391 -0.734573 14.706253
0.910909 1.705065 -0.575251
4.487898 1.533212 2.679264
5.044557 -0.820780 14.816210
0.891348 1.699622 -0.627175
3.237511 1.566063 -3.870508
4.170959 -0.641607 15.502300
0.859125 1.679566 -0.619597
3.951404 1.579253 -4.531096
4.774907 -1.518342 15.624270
0.954716 1.540024 0.839891
5.550197 1.520492 2.441092
5.057732 0.618461 15.186017
0.927404 1.605689 0.573583
7.687010 1.215492 0.843618
6.152953 1.536028 2.590380
0.833434 0.142631 31.845988
0.895825 1.138116 -0.406836
-0.239207 1.518556 6.403817
0.884168 1.139284 -0.568140
5.199103 1.524323 7.533590
4.325203 1.070895 -2.813567
0.855833 1.115898 -0.070619
-0.781197 1.665675 0.025094
4.156205 0.926614 -1.621683
5.704074 -2.647689 17.542252
-0.005300 1.521497 -1.457778
4.344095 0.714384 -2.523146
5.503970 1.547156 6.916484
-0.023956 1.527238 -0.882876
6.316271 0.902158 6.188901
0.199911 0.463635 0.035979
-0.162207 1.578698 -0.393576
9.048843 1.505897 -0.600052
4.250115 -1.976051 15.990771
-3.422627 1.654513 -2.824166
0.550762 1.602676 -1.536637
3.979828 0.059827 -2.741086
3.626971 -4.755271 20.282816
3.937305 -2.208781 18.584197
0.120106 1.080577 -1.389412
5.623444 -9.276194 24.115315
6.431999 -8.322309 18.858110
-0.008746 1.519158 -0.328198
7.711578 0.347994 1.343947
-0.742905 1.490725 6.096449
11.702736 -13.424443 19.303827
-0.320170 1.588266 0.447084
7.293231 0.346193 1.452188
7.312639 1.511349 5.182374
5.934119 -9.087660 24.564575
-0.320962 1.583965 0.445667
7.529418 -0.007513 1.496615
5.882017 0.692097 6.375039
6.868843 -5.531822 18.569686
-0.435756 1.606166 0.529171
6.585213 -6.157511 21.583527
1.254750 1.676731 -1.733552
7.167942 0.846383 16.284014
8.907592 -1.009403 7.136540
1.344596 1.671310 -1.745981
11.627841 -0.234161 -0.755808
5.630043 -2.093670 15.501194
15.652462 -5.659536 12.444431
0.286597 0.971857 -1.497130
7.057540 -0.506397 1.674952
6.089793 -2.651707 16.563566
6.802484 -6.354540 21.615421
0.286199 0.974908 -1.489904
46.987920 -8.694237 6.438087
6.378693 -8.355523 23.105468
12.196380 -13.182143 20.599347
0.002406 1.135879 -0.616584
46.299047 -9.102661 8.502203
6.252009 -8.716813 24.889195
8.052341 -0.999989 6.734707
0.103135 1.168479 -0.662858
44.977598 -8.396460 11.437911
-0.844619 1.569941 3.734827
7.476751 -4.126770 5.309815
0.010662 1.120951 -0.616233
45.908461 -9.564076 3.905517
-1.239826 1.530197 4.306966
0.069991 0.647026 -1.014008
1.729023 1.639981 -1.830627
45.549216 -9.559793 5.172413
-1.454487 1.494484 5.430069
0.069991 0.647026 -1.014008
1.756639 1.638465 -1.803928
45.928951 -9.587518 9.156895
-1.450807 1.494233 5.405308
16.751142 -6.773461 13.240920
0.200172 0.895755 -1.207478
3.141548 1.334077 22.600932
7.265917 -3.944882 5.665492
-0.032624 1.227144 -0.031279
-3.644255 -0.091606 33.362367
-1.097939 -3.634266 6.228899
0.120288 1.266565 0.082516
2.394842 1.605703 -3.339724
-2.587044 -0.572025 33.505988
8.846338 -0.952092 4.504613
0.060105 1.501213 0.805147
2.394842 1.605703 -3.339724
-4.148839 -0.990793 33.932766
5.544851 -3.637054 23.110871
0.058532 1.500070 0.804169
2.448582 1.608073 -3.383599
3.419515 -1.362797 20.376809
8.911350 -3.449290 7.087154
2.059461 1.625209 -1.771387
0.135401 0.531159 -0.118720
6.626250 -7.419926 24.003631
2.071179 1.627224 -1.746186
-1.066899 -1.976415 41.006819
18.542937 -6.541823 10.119376
2.071179 1.627224 -1.746186
4.157500 1.543110 1.186755
5.004400 -2.024691 16.393338
8.387591 -9.683813 25.934110
2.123499 1.612926 -1.644269
4.839397 1.327720 -3.433107
2.966572 -4.524128 21.417658
0.090096 0.741262 -0.773228
4.856485 1.452836 -3.114848
-0.158040 1.553064 5.235163
4.441719 -0.668965 15.357043
2.391705 1.607642 -1.609272
4.703314 1.311205 -3.192199
-0.282439 1.533692 4.421339
11.903253 -5.658876 21.896099
2.349656 1.610960 -1.547674
4.254035 1.103724 -2.697759
-1.147097 1.505411 4.883566
3.968572 -4.666472 21.486711
2.169560 1.621424 -1.468578
4.536126 0.163891 16.057394
6.443450 -7.459616 25.357421
7.990276 1.476330 1.281815
5.272062 1.297872 6.921645
3.362589 1.580530 -0.670505
4.157693 1.134045 -2.342355
8.239350 0.662842 5.447801
8.846077 -1.296732 4.583715
3.119780 1.587217 0.242449
4.656257 0.148506 -1.495616
0.289065 1.612785 2.668980
4.521034 -1.248717 16.239923
5.207919 1.532373 -1.039660
4.015392 1.549071 2.191050
4.980816 -8.792374 22.749681
4.993869 1.514212 -0.789186
8.213960 0.921085 5.111112
5.392135 1.548519 0.087012
0.156832 0.436490 -0.279805
8.052573 0.737020 5.382098
0.165502 0.635216 -0.255851
5.365127 1.550494 0.503195
7.495354 0.624470 1.523610
3.568855 1.103278 21.852656
-2.957208 1.649742 -2.311363
4.244379 1.542330 2.493971
-4.818420 0.213881 33.377558
4.373481 1.537617 2.877556
4.666477 0.956180 -2.496379
3.985277 1.546463 1.529229
7.720622 1.099000 5.691523
4.533792 1.545063 0.430112
6.351117 1.029370 6.261534
0.904516 1.702614 -0.952984
0.225495 0.975983 -1.124467
4.844941 1.543033 0.759903
4.076173 0.747094 16.544745
5.716475 1.526260 -0.920594
-3.961117 0.724106 33.233794
1.128178 1.703559 -0.053211
5.153489 0.949618 6.754591
-5.053957 -1.663078 34.882193
1.172352 1.693151 -1.117569
9.169392 1.110409 4.304779
8.227646 0.568228 -10.064626
3.977463 -2.107862 19.954183
0.888556 1.693041 -1.008771
3.298980 1.587426 -3.647322
8.181070 1.377388 5.022244
0.894855 1.140215 -0.397269
1.420703 1.658029 -1.828845
0.102144 0.279777 -0.445064
8.112800 1.364625 5.133644
0.922594 1.178706 -0.451242
0.138032 0.296218 -0.406382
6.948523 1.526041 5.669761
0.723414 1.640701 -1.028575
4.845305 1.537558 0.477713
7.112580 1.505711 5.898214
0.907136 1.174544 -0.546084
0.007860 1.215943 -0.058364
3.612516 1.574980 -4.486401
0.739485 1.533748 7.337480
2.378017 1.620592 -1.650332
4.439527 1.574071 -3.902991
0.714397 1.572273 8.558601
0.889365 1.173337 -0.794006
2.090080 1.621934 -1.317239
4.969767 1.482124 -1.993539
0.345497 1.522966 8.765604
0.933699 1.664262 -1.859670
5.764934 1.544571 -0.819768
0.324825 1.463451 8.810056
0.862140 1.129419 -0.674628
3.413251 1.575847 -1.496826
-0.773299 1.478536 8.114929
0.844494 1.126375 -0.769658
3.384332 1.575325 -0.808236
5.880261 1.539778 -0.310934
-1.179008 1.513625 9.291909
0.084952 1.675736 -2.147353
3.149330 1.591220 -0.607663
5.980505 1.533185 -0.198414
-1.458125 1.501819 9.144589
3.003080 1.594068 -0.569948
4.506163 1.347340 -3.631936
8.385179 1.279803 5.019575
-2.716853 1.653600 -0.728498
3.062943 1.597031 -0.279344
4.669825 1.380827 -3.577596
8.214478 1.292218 5.122908
-2.412012 1.671592 -1.473816
3.452917 1.573321 -0.556146
7.682436 0.988482 5.109057
-2.202468 1.672567 -2.111284
3.008715 1.591841 0.130542
5.150847 1.285054 -1.674018
7.675850 1.172878 6.092939
-3.069743 1.640357 -2.402966
0.134421 0.704853 0.567893
6.297208 1.548417 -1.172425
5.467458 1.232848 6.623497
1.085042 1.706037 0.350863
1.655288 1.651670 3.599575
6.384494 1.554287 -1.033804
5.542256 1.117002 6.527397
1.136596 1.707991 -0.007026
3.713176 1.562857 1.064172
5.340048 1.382813 7.091810
0.986563 1.707078 0.167847
2.071136 1.627169 4.332758
6.872006 1.538418 -0.627368
5.088281 1.233002 7.225701
1.130705 1.704949 -0.574962
4.867181 1.543873 -0.850117
6.785691 1.571705 -0.377540
-0.025471 1.554477 10.915266
0.946203 1.700382 -0.362229
4.602656 1.539762 -0.052685
-1.833395 1.447514 11.174819
0.161441 0.427810 0.490700
7.584569 1.526556 1.809311
8.113158 0.972594 5.066495
1.053629 1.712882 -0.827032
4.840312 1.538481 0.204304
7.589505 1.563752 2.097695
8.202293 0.944885 5.214697
1.049080 1.710659 -0.835643
4.824590 1.557059 0.422810
7.589505 1.563752 2.097695
7.852481 0.738993 5.349087
1.030319 1.707631 -0.832064
4.903614 1.549213 1.796468
5.081105 1.522375 -7.948710
7.776137 0.755197 5.871597
0.902439 1.130774 -0.078654
6.166409 1.545353 -0.099340
5.806449 1.538572 -7.291854
6.904699 0.837642 6.342182
5.978378 1.554246 0.163072
5.306847 1.548923 -6.089653
5.874740 0.912579 6.432069
0.847798 1.697264 -1.043181
7.906041 1.479804 0.260002
4.479102 1.074258 -2.313143
5.503902 1.029787 6.532156
1.007929 1.682776 -1.475202
7.652104 1.524712 1.399731
4.454214 1.089830 -2.229683
5.414710 1.036898 6.573130
6.024992 1.549824 3.924910
4.271781 0.975264 -1.828454
8.047262 0.495468 5.473166
0.859810 1.133558 -0.823127
5.166822 1.475687 7.573481
4.862334 1.108353 -1.710130
7.880312 0.614948 5.570435
0.053005 1.044986 -1.060695
7.774967 1.493396 1.484799
4.912412 1.082480 -1.540324
7.937375 0.574790 5.672488
0.053005 1.044986 -1.060695
8.992984 1.562746 3.507895
7.652640 1.569582 0.026459
5.659897 0.649433 6.499012
8.252110 1.541079 5.104648
7.673041 1.572700 0.020321
5.214416 0.639921 6.697523
7.161110 1.418045 4.727102
7.488710 1.559438 0.166102
5.232408 0.642629 6.728294
7.149922 1.415717 4.722273
7.732154 1.417739 -0.018818
5.107145 0.626106 7.090603
-5.503768 -7.178096 74.017227
7.401041 1.519659 5.416030
8.060315 1.429978 0.316178
7.446406 1.450357 15.801840
6.443951 1.390043 6.394596
8.060315 1.429978 0.316178
7.536661 1.461677 15.978294
-4.127055 -0.828855 33.453395
5.811396 1.476462 6.615460
8.222055 1.479094 0.319009
6.919479 1.402004 15.961699
3.657199 -1.829139 20.521829
5.269943 1.315672 6.692171
7.916238 1.502797 1.123173
4.815239 1.438125 16.321801
6.121428 -2.614986 16.509381
7.746194 1.139463 1.135214
7.864483 1.370277 1.032909
4.739455 1.471893 16.749729
6.117054 -3.007139 16.834044
7.904441 1.069874 1.503149
7.887430 1.375105 1.032937
4.390844 1.466198 16.226044
5.493560 -5.110024 22.526727
7.906189 1.069170 1.504017
7.260758 1.264727 1.632099
3.380250 1.423653 17.693962
-1.288179 -4.354693 6.713178
7.716220 1.214156 2.119504
7.623415 1.474298 1.794061
8.187804 0.256475 5.752118
7.835943 1.141746 2.165926
6.824659 1.516907 -7.743308
6.050733 0.304235 6.484810
9.670291 -7.723748 23.040960
9.445132 1.459108 3.951496
6.958392 1.523171 -7.536170
5.666888 0.309534 6.752000
9.603370 1.437842 4.040071
5.450391 0.351899 6.851196
6.995648 -11.845208 22.995876
9.066237 1.379699 4.161534
4.380847 0.782702 -3.107269
5.133969 0.440041 8.013974
9.468422 -12.356514 19.676868
9.122703 1.373596 4.132962
4.515750 0.770336 -1.909136
5.219764 0.413488 9.019667
9.724046 -8.248418 22.226720
8.488095 1.528655 4.769747
9.013249 1.414747 -0.966887
4.524549 0.269681 14.536398
-7.880019 -1.913906 33.549206
7.590393 1.214603 5.602245
7.739785 1.273294 0.935091
4.257352 0.665573 16.200708
3.526801 -2.589453 19.210126
5.980519 1.181260 6.320503
7.726942 1.166279 1.040349
4.318066 0.668326 16.395583
6.235630 0.979116 6.312103
7.911405 1.295953 1.080761
3.998931 0.227653 16.091834
8.277732 -8.216093 20.868402
5.096228 0.970434 6.696551
7.843284 1.279129 1.135372
3.631522 0.875715 21.715982
11.603797 -10.877692 23.109453
5.009005 0.825515 7.048746
7.746766 1.195347 1.871549
-3.016832 1.085076 33.353512
5.207992 0.694156 6.632211
7.900862 1.099864 1.840837
7.862768 -0.413496 16.365008
5.251974 0.719211 6.812158
7.858899 1.212153 2.037786
4.433660 -0.309871 15.014652
5.225926 0.635604 6.653507
4.807904 0.557239 -2.320448
4.438648 0.083370 15.728965
3.303370 -3.964967 22.416055
5.037300 0.740251 6.725029
9.100055 1.225284 -0.845741
-2.003297 0.477328 33.706755
5.160134 -3.696854 21.848922
4.916171 0.598342 7.303577
-2.340671 0.365343 33.283214
4.863075 -4.587452 24.128502
4.997419 0.809663 7.713312
7.434120 0.712139 1.941455
-2.500033 0.548444 33.609508
-2.390046 -2.754406 7.812843
5.019443 0.612281 7.530054
7.571977 1.101799 -8.080379
-4.026114 -0.165082 33.042443
-2.003029 -4.485170 6.065769
-0.046172 1.562702 -1.167708
7.716467 0.968377 -7.881542
5.652923 -0.615543 14.686549
-2.021516 -5.163869 5.774212
-0.048755 1.559428 -1.169421
5.400416 -0.502404 14.630722
4.673183 0.178051 14.744477
0.087837 1.476141 -1.346526
4.262239 0.378999 -2.303514
4.784382 -0.905536 15.189711
3.959383 -1.292297 16.997238
4.421745 0.328836 -2.206741
4.667821 -0.939324 16.015710
-22.144188 -2.373165 49.498233
0.914488 1.653872 -1.677937
3.950386 -0.989787 17.025560
11.409816 -4.719861 25.740262
-0.413151 1.599486 0.540508
4.431993 0.249532 -2.269882
2.740987 -0.965455 21.740386
5.016936 -3.707809 22.297270
-0.468185 1.611768 0.507911
7.666096 0.601654 1.097403
-0.027437 -0.599535 35.716335
-1.398464 -4.053886 5.590887
1.581318 1.648117 -1.631599
7.671009 0.506170 1.143669
-1.990737 -0.850596 33.636982
-3.110277 0.185401 33.484264
7.552076 0.628250 1.561867
-3.606557 -1.124768 34.592418
-5.921331 0.213288 33.652658
7.513683 0.470796 1.561553
5.769807 -1.398723 14.499154
5.962669 -0.349010 14.196251
0.328781 0.938467 -1.514053
5.363562 -1.205444 15.001677
5.622656 -0.716199 14.706509
5.308827 -1.385580 15.173406
-7.499660 -2.185148 34.517638
1.940127 1.622726 -1.723292
4.026877 0.005937 -2.766241
3.241451 -1.078131 20.575437
-7.825134 -2.074293 33.718310
2.374930 1.610472 -1.469548
4.060932 0.035672 -2.670336
3.376019 -1.711016 20.764780
-8.463974 -1.813207 34.129786
2.474386 1.595914 -1.391450
4.311411 0.154553 -1.832595
2.900068 -1.131332 21.658814
4.128295 -2.215453 20.627548
7.321020 0.388107 1.435492
-2.203244 -2.209098 42.060015
-1.809854 -5.174374 5.517989
0.103123 1.040927 0.906072
7.299258 0.417000 1.471414
-3.175339 -1.258649 33.838174
5.053648 0.496491 7.587424
2.818657 1.586655 -1.304138
7.501111 0.418759 1.488609
-4.750248 -1.403926 34.590348
-4.540910 0.058211 33.276910
2.940835 1.590541 -1.204534
8.914781 0.382237 -9.722991
-5.064264 -1.932704 36.017710
5.016088 -0.659697 14.702265
2.942312 1.587782 -1.046638
1.555144 -2.043805 23.897535
3.939844 -0.767883 15.666467
2.907766 1.592966 -0.866478
6.628518 -6.224003 24.047903
11.690406 -12.630669 17.637937
3.959404 1.560978 0.574753
-0.955281 -2.834324 6.013877
4.966243 1.527013 -0.842482
-0.849730 -3.383986 5.971840
5.464478 -0.168031 8.405574
-0.431515 1.669457 0.007446
-0.909395 1.598832 2.754241
-3.203471 -1.043440 34.571872
5.528875 1.548264 -0.144447
-0.209540 1.603274 -0.333727
4.233435 1.548308 1.067278
4.008239 1.548115 3.250131
0.146431 0.578265 0.456313
3.967628 1.549025 1.170803
4.918537 -0.767908 14.854192
3.939279 1.545569 3.297536
5.754753 0.957436 -0.804917
3.868686 1.554868 1.142737
4.200861 -1.110328 15.963844
6.212999 1.555143 1.229692
0.392841 1.553652 1.510181
3.874279 1.550231 1.448462
5.960841 -1.279006 14.657869
7.887830 1.564529 0.348542
0.141385 0.882409 0.660028
3.383003 1.573350 1.303758
-21.511282 -3.424592 46.978967
8.026617 1.549516 0.466101
3.376902 1.562564 1.616761
-21.952798 -3.696500 48.142171
8.026617 1.549516 0.466101
5.278537 0.901076 -1.787952
3.305232 1.567179 1.669255
-8.155933 -1.934392 20.580560
7.381309 1.558295 1.820745
-0.356837 1.611013 0.413161
3.176969 1.571893 1.808431
3.629134 -4.248517 23.322047
5.731510 1.558266 4.158653
-0.298053 1.581716 0.722278
-0.560003 1.598624 3.165577
7.857900 -5.050277 17.245049
6.065408 1.574481 6.150264
-1.574369 1.577298 3.557516
5.311263 1.491754 6.918868
4.707421 1.538409 1.619190
-1.937821 -2.617227 7.296186
7.902261 1.466787 0.230299
5.264514 1.046503 -1.408080
4.780050 1.540408 1.664802
-2.407490 -2.593475 8.363079
7.944171 1.461212 1.176826
-0.471091 1.596252 0.811176
4.791613 1.544862 1.675412
6.261538 -9.307443 21.170574
7.761825 1.471872 1.429339
-0.005747 1.569145 1.078044
2.852206 1.581408 2.021613
5.617047 -10.280908 23.900880
7.761825 1.471872 1.429339
0.726637 1.608136 2.131702
2.823816 1.575582 2.191132
-2.185456 -3.131319 7.082815
7.179989 1.328955 4.826599
-0.013944 1.509552 0.273179
5.230573 1.541874 2.283618
7.968358 -8.800213 19.039622
7.139136 1.591336 5.612338
0.131488 1.245921 0.188400
4.645289 1.543647 2.034654
5.763129 -10.822903 23.611717
7.391502 1.545619 5.680398
0.143354 1.258529 0.177425
3.132642 1.568678 2.842015
-2.701542 -3.358709 7.276931
6.805961 1.529683 5.896979
0.085070 0.773067 -0.532393
-1.062358 1.550362 4.351965
5.901895 -11.358878 22.736042
6.532278 1.572592 6.031420
-1.111038 1.541143 4.274378
9.156648 -10.282358 18.203172
5.352037 1.384663 6.629067
0.263587 0.541887 1.157078
4.775651 1.535190 2.631131
7.302439 -12.250509 22.112186
5.166966 1.293469 7.156025
4.460285 1.528617 2.726956
5.840202 -11.777367 22.084073
5.021320 1.247434 7.327131
6.433085 1.606218 6.033346
4.513774 0.907964 -2.475517
4.274756 1.538223 3.532314
-1.348138 -3.840162 6.336436
7.692316 1.245817 2.183011
5.762244 1.602159 6.330439
4.570573 0.877539 -2.334132
3.742166 1.569855 3.627173
9.934569 -12.351481 20.104500
8.742913 1.411566 4.286019
5.903603 1.570420 6.549723
4.400808 0.725120 -2.804440
3.688109 1.560951 3.618279
-1.455064 -3.962277 5.627141
8.191715 1.392605 5.029183
5.966607 1.477674 6.405721
2.753859 1.596146 4.036127
-1.457900 -3.971475 5.634410
7.531864 1.244721 5.897611
5.958674 1.475285 6.395095
5.031890 0.497558 -1.234047
2.739335 1.595541 4.096095
10.849414 -11.497400 17.074197
7.531864 1.244721 5.897611
5.352114 1.581944 7.058750
-0.967149 1.658397 -0.581885
2.554319 1.602675 3.969590
-2.078623 -4.550772 6.378683
6.425243 1.093480 6.234272
0.203980 0.268282 0.587816
-0.586465 1.638537 0.410124
-0.751722 1.524742 5.094450
-2.060780 -4.657344 5.475772
5.130102 0.989074 6.598958
7.329473 1.344220 4.636553
-0.457370 1.625716 0.316215
-0.751722 1.524742 5.094450
-2.247243 -4.940210 5.799595
5.728566 0.785319 6.454106
7.467171 1.248096 4.934908
-0.213185 1.556417 0.605890
-0.935748 1.494538 4.530289
-2.247243 -4.940210 5.799595
5.711055 0.638381 6.344119
7.503814 1.231464 5.916772
0.262133 1.538493 1.250223
5.353733 1.537507 3.769288
-1.719135 -5.124276 5.393408
5.711954 0.638593 6.344039
7.437174 1.256419 6.173245
0.542865 1.600060 1.878291
5.000851 1.544068 3.522116
-1.719135 -5.124276 5.393408
5.330877 0.742201 6.628324
5.972130 1.371442 6.478605
-0.490825 1.651625 -1.109926
3.438999 1.570027 4.085970
3.191579 -3.336462 0.801375
5.219114 0.607291 6.623429
5.390809 1.230874 6.606400
0.624371 1.554691 1.374122
3.430325 1.566485 4.070965
3.191579 -3.336462 0.801375
5.193871 0.639716 6.760519
5.273145 1.363644 7.071368
1.074539 1.648200 1.900898
3.056149 1.581710 4.903386
5.156173 0.630749 6.831580
5.268807 1.445006 7.205237
2.154816 1.620226 4.988422
5.007798 0.583530 7.269140
4.278473 -1.737915 18.033743
5.144573 1.170161 6.953493
-0.310060 1.637451 -1.559617
0.419622 1.542926 5.946599
-4.499482 0.629960 33.692759
4.677401 -0.177194 14.758337
4.697797 1.552849 8.633472
-0.889566 1.497029 6.261642
-10.954364 0.891183 32.181064
6.995546 1.585422 5.713406
7.628140 1.164423 5.905641
0.066843 1.135845 0.103763
5.649414 1.562610 4.683820
-11.024778 0.907682 31.873331
5.115273 -0.580351 15.191866
5.967908 0.920025 6.450030
0.091600 0.773354 -0.701169
0.545226 1.521398 6.242738
5.046707 0.422583 7.698604
5.762962 0.950808 6.507721
-0.557127 1.462633 6.571778
5.232012 0.359957 9.104594
5.675212 0.821715 6.462911
8.454114 1.522714 4.881264
6.162239 -0.088928 15.291562
8.285429 1.506593 4.837573
4.969271 0.869052 7.370076
4.453357 1.282387 -2.427352
8.508822 1.492663 4.944505
5.735415 0.230223 15.032351
7.697300 1.154882 5.574110
7.827712 0.797299 5.739353
4.284169 0.771133 -2.613997
8.160844 1.543452 4.702427
-4.931555 -0.474431 33.321652
3.443489 1.500539 17.730214
7.808458 0.772728 5.760588
8.217804 1.556286 4.753427
4.628445 -0.374472 15.018594
6.474092 0.914851 6.394798
4.557807 0.733368 -2.089438
8.213953 1.537137 4.874085
-7.276102 -1.025662 34.175011
5.828036 0.109269 6.602583
7.431494 1.413464 15.895056
7.525002 0.743002 1.642876
8.079404 1.456480 5.119731
-7.474147 -0.831306 34.152984
-0.408302 1.588624 0.697755
7.322596 1.327421 4.742443
-8.518920 -0.750365 34.294035
8.084927 -4.910662 23.418127
-1.218927 1.668056 1.585883
5.967519 1.594104 6.182281
-5.908462 -2.084698 33.767168
0.302194 0.724734 0.883283
6.012823 1.541854 6.278415
-8.848125 -1.945545 33.990167
6.568085 -3.062809 17.871449
0.172877 0.665306 0.615374
5.981559 1.406146 6.465405
-22.040894 -1.985288 47.614984
0.169061 0.490223 0.481363
4.692291 1.430473 -3.222023
5.786908 1.492918 6.476556
-22.089934 -2.149369 47.589495
0.081214 0.562375 -1.334796
-0.721586 1.655690 -0.940224
5.506743 1.424291 6.563310
6.156613 -1.367578 14.587301
7.452961 1.196934 1.718033
-0.128410 1.531608 1.172497
2.949434 1.584551 7.298918
6.148005 -1.365148 14.562476
7.812857 -0.162418 2.653585
0.199762 1.626362 4.243956
7.668096 1.123227 1.631472
0.590309 1.545725 8.889490
-9.522446 -9.091299 80.684853
6.461697 -6.012828 22.055792
0.271006 0.309409 0.561282
7.022035 1.253130 -8.049487
0.424772 1.514726 8.988581
-9.508933 -9.082087 80.582106
7.551342 0.046319 1.400801
7.156056 1.394726 4.817041
-0.204944 1.571329 1.168384
-0.219381 1.546484 8.048064
-6.768291 -2.398710 28.996757
8.486641 -0.791731 4.010342
1.393725 1.678634 -1.115937
-0.312485 1.590322 0.810475
-0.621262 1.523878 8.360468
5.349861 -1.714576 14.855174
7.917102 -0.761366 5.171567
1.335336 1.683706 -1.139044
-0.554673 1.633026 -0.164866
-1.097066 1.464047 7.886130
6.113156 -3.685903 22.524315
7.076989 -4.056568 5.612879
-0.663875 1.641234 -0.114477
-0.535021 1.690733 -1.104634
8.294527 1.256658 5.082473
-7.941407 -2.630386 19.492766
19.803477 -9.535628 13.377389
-1.569254 1.646691 0.512873
-0.416560 1.685405 -1.070573
7.309684 1.208791 4.887455
6.415637 -4.886316 23.029649
0.240656 0.718651 -0.142369
-0.265420 1.588559 1.028133
0.111226 1.289226 1.263524
7.592617 1.256679 6.114004
7.104169 -5.384754 18.488754
4.625932 0.464768 15.946633
-0.963118 1.595691 2.813123
0.677401 1.550467 1.382877
7.630805 1.264138 6.162255
5.269304 -6.865308 23.237320
8.726209 0.005899 4.473985
1.053818 1.087626 1.121450
-0.214639 1.579679 -1.075370
6.365104 1.126995 6.265576
-2.478943 -2.768122 7.539308
8.759337 -0.260837 4.724236
0.156982 0.616716 0.547820
6.173420 1.148073 6.293567
5.809057 -8.520785 20.426068
-1.023027 1.476056 8.141742
0.113087 1.330763 0.027862
5.997277 1.130030 6.306776
5.532409 -8.164373 20.149382
4.533391 -0.599615 15.266740
-0.049644 1.256836 -0.081602
5.897533 1.204445 6.479236
5.810653 -8.941551 21.231179
0.131605 1.181498 0.785040
-1.078358 1.644045 -0.378724
5.792090 1.101807 6.541874
-0.787337 -2.724216 5.833653
7.693223 1.219367 15.786761
0.651066 1.127189 -1.438242
2.193276 1.613159 1.867280
5.316460 1.338188 6.835713
7.586486 -9.460647 19.326200
5.069393 0.441117 7.029355
0.096617 0.715338 0.691687
5.233238 1.400656 7.027175
6.120016 -10.673885 24.263372
0.619570 1.584223 3.812634
0.173337 0.794811 0.991444
5.396083 1.208332 6.780466
-0.927338 -3.315255 6.322597
8.523661 -0.024969 5.890380
0.087047 0.828100 -0.190424
5.214274 1.104544 6.744929
-1.563150 -4.127934 9.197945
0.304630 1.558311 5.087120
5.222789 1.529872 7.559606
7.572227 -10.215731 19.898245
8.563998 -0.437290 4.882967
-1.298651 1.462263 9.686419
6.106558 -11.291129 21.893992
8.765139 -0.524719 5.163168
1.401697 1.683212 -1.322076
2.713077 1.604912 0.967520
8.297364 0.867464 5.213530
5.648040 -11.305266 22.960751
1.218143 1.689354 -1.213748
8.039597 0.925447 5.269624
5.734783 -11.245780 22.174678
18.769953 -6.995470 12.491280
-0.486175 1.644441 -0.498115
7.781667 0.944627 5.193024
0.360864 1.514160 4.746090
-0.540554 1.640526 -0.483415
0.189966 0.641732 0.605283
7.910144 0.916687 5.296714
9.012193 -11.776953 19.420625
7.637653 1.243746 2.235393
-0.114259 1.250803 -0.246676
3.113414 1.576426 1.268024
7.666220 0.769998 5.309249
-1.378866 -4.020603 5.660396
-0.149830 1.195339 -0.284719
0.107267 0.739935 -0.839280
7.719679 0.776022 5.360240
10.483606 -13.180484 19.717240
8.014576 0.931380 1.741432
-0.657290 1.626480 0.743985
7.717279 0.735297 5.319858
10.483606 -13.180484 19.717240
8.016643 0.935285 1.742054
1.451326 1.667431 0.605556
7.765192 0.699984 5.429494
10.171198 -12.972773 19.730094
8.772562 1.290892 4.267179
-0.740304 1.599916 1.675612
0.120922 0.565646 -0.327417
6.798987 0.904609 6.353455
-1.935917 -4.554049 6.650897
3.165214 1.539771 15.264965
3.479292 1.575429 0.622648
4.990515 1.537915 0.974563
6.485398 0.987060 6.250025
12.308814 -12.598718 17.583874
7.317987 0.348371 1.904177
0.355476 1.616748 2.676615
6.645011 0.945262 6.340162
11.790988 -13.090572 18.327735
-0.815759 1.592509 2.679095
4.029996 1.561965 -6.418085
6.212094 1.029915 6.282109
8.273518 0.321498 5.538957
0.147724 1.569086 3.177781
7.749756 1.324927 1.804941
6.010802 0.824679 6.321756
-1.509543 -4.945209 6.486672
0.197300 0.364925 0.455982
4.330705 0.965165 -2.711831
5.922275 0.972466 6.351298
-2.220798 -4.767614 6.151554
8.756916 -0.109009 4.607644
0.406394 0.333067 0.542506
4.462395 0.772805 -1.957217
5.820742 0.891931 6.451298
9.933437 -13.671765 18.697879
5.498857 -0.295835 8.680885
2.968880 1.584821 5.492757
4.938629 1.022451 -1.682755
5.283727 1.067158 6.824930
-2.015738 -4.700014 5.601069
5.178178 -0.120988 14.990981
7.731457 1.114214 1.048858
5.228448 0.824337 6.572339
-2.175100 -4.919832 5.565196
8.774198 -0.404693 4.770363
-0.578281 1.506018 8.560620
4.824329 0.602321 -2.245556
5.289134 0.793117 6.636998
-2.184751 -4.940226 5.605899
6.299042 -0.692375 14.719729
7.350286 1.316826 4.740655
4.815666 0.599623 -2.241794
5.193521 0.800553 6.611114
-2.638303 -4.931769 5.591639
4.573062 -0.781665 15.253490
0.840438 1.546517 8.486940
-0.483520 1.616096 -0.169012
5.055390 1.145860 7.607238
-0.512646 1.485465 9.336598
-0.216393 1.593854 0.699498
7.985738 0.600107 5.606125
-0.345258 1.626462 -0.693076
5.306334 0.597436 6.625079
0.206327 0.656052 -0.187997
1.816076 1.641263 -1.214950
1.223844 1.646775 2.083996
5.114237 0.699886 6.863448
1.573568 1.654517 4.275830
2.334461 1.619711 0.728573
-0.007982 1.166445 -0.537113
5.098443 0.505301 7.727426
7.703416 0.345874 1.349563
7.735593 0.269784 1.659926
1.914928 1.634807 0.871801
0.321156 0.833263 1.047268
7.434340 1.363127 15.781580
6.289050 1.468380 6.382855
5.505617 -0.354519 8.547704
2.454867 1.602523 1.397166
2.557785 1.604951 1.273608
7.296989 1.418042 15.911722
0.124710 0.798906 0.622257
8.156049 -0.525091 16.777870
0.133972 0.526875 -0.266868
0.100348 0.847746 -0.373614
7.309451 1.433502 15.921681
0.115034 0.835077 -0.202858
3.856424 -0.448881 16.286771
0.138825 1.612042 2.480354
1.344662 1.633934 -3.685419
7.086727 1.437856 15.807545
7.658463 0.479502 1.150899
6.121695 -0.926879 14.830192
-1.300905 1.594093 3.235642
0.208392 0.644828 0.610677
6.677433 1.399841 15.589010
5.577605 1.213828 6.488420
5.009889 -2.275799 16.684195
-0.606137 1.538322 4.165209
3.408616 1.550558 1.444487
7.115571 1.430839 16.191284
0.147028 0.501989 0.379212
-1.200312 1.589596 4.614255
6.440192 1.324636 15.508828
0.133406 0.660114 -0.275701
6.619366 -6.486633 24.145469
5.659433 1.530302 2.367808
3.530422 1.571920 -0.364156
5.476195 1.509872 15.560772
0.153764 0.437535 -0.276500
5.168349 -6.743755 22.893031
5.677184 1.537217 2.382043
3.243945 1.576778 -5.460612
5.681300 1.481958 15.948084
0.263339 0.977849 -1.477369
5.130670 -6.698706 22.712671
4.633000 1.514160 -2.518929
5.524246 1.441633 15.925200
5.029176 -6.967905 23.121137
-0.390690 1.533417 4.647788
5.376037 1.544219 -1.255355
5.470519 1.452397 16.352706
17.001213 -7.610281 9.738617
-0.794107 1.511127 6.090567
7.066777 1.549955 0.678918
5.885209 0.385285 6.536420
0.373961 1.500627 6.307587
7.396182 1.574637 0.924830
6.003406 0.275729 6.657075
0.076198 0.823277 -0.894172
18.719620 -9.096822 12.719800
0.326972 1.537944 6.778204
4.247969 1.001876 -2.634529
5.800771 0.171433 6.569251
18.630880 -9.269490 12.463135
-0.598357 1.465723 6.883032
4.266122 1.031430 -2.430759
5.800744 0.172025 6.571109
5.969885 0.701245 6.444953
3.536619 1.569705 -0.380471
5.805354 0.156085 6.659264
3.543569 1.571878 -0.377240
0.918958 1.534182 6.964254
4.287217 0.982348 -2.055329
5.682276 0.340453 6.621414
43.851974 -10.949710 18.439818
0.838271 0.878743 -1.429845
7.132953 1.475364 6.090962
4.458798 0.890468 -2.319814
5.506620 0.387360 6.683815
0.037673 1.001843 -1.017391
7.871433 1.392132 1.564533
5.355763 0.286474 6.976761
5.482907 1.445463 6.643656
-1.077587 1.672808 -0.642413
5.150632 0.353972 7.162803
0.091100 0.784043 -0.913422
3.280257 1.545023 15.267830
-1.013618 1.645738 -0.993864
-1.078604 1.673506 -0.642143
5.054325 0.453747 7.470684
7.559609 0.755745 2.050049
0.502584 1.592925 -1.514949
-0.327539 1.576973 0.852155
5.068037 0.455029 7.495937
3.404756 1.429758 17.823547
1.201140 1.691771 -1.448004
-0.063597 1.582623 1.304250
5.201002 0.271767 7.737324
0.163503 0.528779 0.090819
3.662128 1.405497 19.793286
-0.031370 1.515769 -1.144583
-0.061529 1.584646 1.303518
5.104930 0.292864 7.680234
40.437952 -11.912658 14.268337
-0.361681 1.640933 -0.849824
0.312014 1.590385 1.814922
7.529892 1.267776 15.660763
-0.040968 1.168951 -0.570129
7.810860 0.247815 1.266249
1.478352 1.660932 -1.314759
-0.089973 1.592921 0.977366
5.246005 0.823979 16.113560
7.807101 0.246385 1.264491
-1.420045 1.644646 0.125220
0.037179 1.563395 1.043963
3.526023 1.465327 21.392652
6.760617 0.302201 6.359233
2.675402 1.599924 -0.616301
-0.218798 1.593791 -0.367111
3.966410 1.216993 21.752256
0.106034 0.886904 -0.110297
6.791181 0.372391 16.011357
2.449241 1.613260 -0.286470
-0.020567 1.504859 0.297850
3.828676 1.199312 21.617614
0.142312 0.719517 0.093279
7.235898 -0.055125 1.849333
1.940567 1.632224 0.025841
-0.046847 1.514794 -1.017646
3.729620 1.272454 21.739905
5.485663 0.823238 6.541386
8.801138 0.047771 4.811835
-0.779139 1.625679 0.988158
0.014384 1.451351 -0.871512
3.450278 1.253932 21.803136
4.654320 0.471373 -1.872301
7.489739 -0.410855 1.139599
2.479861 1.610568 0.253475
1.622847 1.646740 1.486796
3.681655 1.098922 21.685489
7.577604 -0.306024 1.390771
1.719750 1.651876 1.070999
0.111579 1.180304 -0.135398
8.517660 -0.106643 4.929540
4.923704 -0.810695 15.376814
-0.454071 1.582452 1.815318
0.072816 1.136732 0.010762
8.672860 -0.182938 5.109946
4.515325 -0.793262 15.991145
-0.807673 1.606916 1.999041
1.782999 1.646851 1.490044
8.601462 -0.182098 5.055891
0.097672 0.855969 -0.230948
4.070848 -0.784363 16.324900
3.272261 1.572765 0.601934
5.441242 -0.018843 8.162868
0.064637 0.758561 -0.459756
5.054231 -1.465429 15.355326
5.383922 0.094912 8.114771
5.332664 0.688998 6.491370
4.092771 -1.211237 16.336042
1.692694 1.650119 2.021749
2.361573 1.605333 1.299604
5.527039 -0.084713 8.551203
3.012456 1.578290 1.580791
5.247625 -0.108235 8.758872
18.977422 -9.234133 13.911349
0.983091 1.019433 1.129640
2.988743 1.566920 1.643814
6.386810 0.611696 15.685641
13.169143 -1.767653 1.544726
17.609530 -8.157169 10.398244
0.000808 1.593984 2.928081
1.477855 1.648005 -3.668484
5.530641 0.227611 15.141811
38.227933 -7.792225 14.874699
7.321845 -4.638305 5.296682
0.271396 0.517797 1.188621
5.532065 0.222456 15.136841
38.238381 -9.553222 15.845479
3.639466 1.580231 -0.335351
0.256828 0.512659 1.192017
4.483414 0.345001 14.566556
0.074953 0.948036 0.392021
4.114399 1.548345 1.981831
4.156078 0.614992 16.233023
0.886655 1.610648 2.846048
4.282222 1.546132 0.461324
4.346931 0.538651 16.440477
4.595456 1.550681 0.486973
4.250098 1.542177 2.505706
4.294006 1.548927 0.457393
4.355751 0.305201 16.008380
0.055675 0.736266 -0.454361
3.602067 1.546162 2.385646
3.174083 1.598041 -3.917322
3.895513 0.412654 16.921704
4.840216 1.544901 0.233962
5.790386 1.541850 3.069037
5.341658 1.539224 -0.634035
-0.579821 0.989736 34.643940
4.631508 0.324976 -2.060793
7.603503 0.668860 1.667660
5.872105 1.526187 3.318730
4.854334 1.505353 -3.266751
-1.664900 1.160207 33.033656
8.089971 0.799583 5.264220
5.174246 1.536154 3.673880
-2.514019 0.895687 33.757163
14.792156 -3.140984 4.467084
5.346894 0.820297 6.626090
2.167137 1.618776 4.799587
4.877341 1.107829 -1.501850
-3.023309 1.227571 33.401581
46.049859 -9.908296 5.931571
0.330816 1.538695 5.121542
-3.283580 1.029857 33.453836
46.476287 -9.795513 8.042432
0.163288 1.510904 5.978155
7.294232 1.472176 -0.337999
-3.849079 1.462762 32.007205
5.068873 0.651928 7.149447
0.879664 1.555385 6.819479
7.599446 1.551496 0.544275
5.705041 0.053356 14.834682
39.015708 -8.623480 14.795266
5.232956 0.447724 8.903686
0.632720 1.517695 6.318428
7.699759 1.475815 1.831577
5.511735 0.001584 15.091240
0.035827 1.568783 1.026759
5.811667 1.478165 -7.995857
5.811847 -0.475685 14.702091
0.116539 1.357597 0.004847
8.205365 0.182179 5.146053
0.761648 1.521424 7.526424
6.261629 1.532799 -7.441956
4.500067 -0.001290 15.355177
8.223162 0.519190 16.314203
0.434063 1.520515 7.520036
6.932410 1.496326 -7.900128
4.758217 -0.283735 14.617237
7.843023 0.111223 16.261081
-0.311311 1.530734 8.011288
4.354041 0.937930 -1.997173
4.346105 -0.088229 15.405804
5.013132 1.352371 -2.239295
4.637715 0.355528 16.037780
-0.618239 1.541209 8.447838
4.672716 0.652951 -2.303176
4.366770 -0.078252 15.537671
7.408120 -0.096135 1.045391
-0.673823 1.500322 8.628157
4.133695 -0.286587 15.810272
5.570494 1.138917 6.351195
5.364254 -0.028417 8.616614
8.172299 1.377895 5.014419
4.537318 0.523015 -1.510288
3.856981 -0.030448 16.398150
5.444438 1.176059 6.736734
8.513007 -0.249888 16.330644
1.573559 1.653844 -1.461729
-0.386667 1.684612 -1.075351
-1.881115 0.617132 33.808273
7.596070 -0.597337 1.615475
4.790893 -1.289086 15.928199
1.573621 1.654151 -1.461571
-0.352977 1.652407 -0.891095
-3.118495 0.355756 33.327161
9.076749 -0.878676 4.273463
4.737569 -1.326451 16.266761
1.956577 1.626589 -1.507658
-0.346901 1.641178 -0.838279
-2.999990 -0.071872 33.208588
4.724056 -1.265183 5.370431
1.386918 1.668149 -1.072817
-0.015700 1.530777 -0.927976
-3.955180 -0.021058 33.141631
38.971593 -9.755230 14.481651
-1.434361 1.649906 0.064629
1.378839 1.678771 1.537495
-4.185045 0.002425 33.239568
5.027602 -2.123208 16.841062
1.973187 1.626637 -1.316018
1.468929 1.670298 1.524118
6.202105 -0.928162 14.734791
38.743203 -10.465559 15.002182
6.544692 -3.727236 19.463372
1.891364 1.634721 -1.293207
1.488342 1.669018 1.568855
5.763481 -0.712242 14.781488
38.432431 -11.770493 14.825364
8.081830 -5.387192 17.828411
1.424607 1.670823 -0.989608
1.650651 1.656500 2.011704
4.256164 -1.000749 16.076358
18.970346 -6.164052 9.843333
4.943853 -6.886384 22.932138
1.914754 1.634945 -1.071048
-0.053149 1.542275 -1.447538
3.698180 -0.641366 16.217847
4.867272 -6.956725 23.143365
2.378964 1.604202 -1.010277
0.136052 1.252539 0.062001
2.898350 -0.507712 22.193731
0.101389 1.328478 -0.078167
17.113317 -8.080990 10.127859
3.195432 1.585281 0.433008
2.307307 1.603144 1.527704
-0.928915 -1.018025 34.011595
4.429334 0.933627 -2.168898
3.185208 1.588953 0.258991
2.272378 1.618423 0.662277
2.536968 1.603884 0.937965
-2.091150 -0.395282 33.382485
5.234404 1.107291 6.770817
4.400003 1.555742 0.123389
2.051859 1.618842 0.941187
2.857320 1.590428 0.983775
-2.775858 -0.433424 33.552901
5.034923 0.970561 6.923095
1.952906 1.631340 1.073140
3.151094 1.563714 1.808723
-2.542208 -0.500101 33.574339
5.754148 0.879533 6.544400
0.051788 0.546032 -1.331106
3.506311 1.570080 0.626575
3.208194 1.568882 2.105133
-3.425647 -0.523478 33.368167
5.856732 0.819914 6.518136
0.102076 0.706979 -0.679818
0.202563 1.037210 -1.531261
-3.425579 -0.524690 33.364572
5.163734 0.707061 6.873915
0.100789 0.707619 -0.617760
1.696271 1.642509 1.601714
-4.124741 -0.693029 33.543206
4.750023 0.543974 -2.052102
0.070338 0.918258 0.345215
-4.855441 -0.572776 33.625453
1.146349 1.621081 3.420192
-0.501569 1.619551 2.202461
5.799896 -1.291285 14.572546
7.673528 0.400879 1.167592
4.839819 1.534949 0.163028
3.251153 1.576947 1.104057
3.411608 1.569970 1.078133
4.648572 -1.162373 15.962257
0.241504 0.544637 1.208944
4.846912 1.539871 0.206206
3.270260 1.559905 1.558198
4.318981 -1.266723 16.134067
5.475227 0.572396 6.647152
4.908801 1.546485 0.375595
2.190611 1.611503 1.645238
3.582345 1.547399 1.621816
4.337858 -1.543088 16.474308
5.100628 0.454717 7.550524
4.908801 1.546485 0.375595
0.829825 1.158338 1.129658
1.542234 1.651368 -3.763615
4.364037 -1.544915 16.567032
4.638044 0.376525 -2.052679
0.127726 0.572796 -1.094115
-0.012051 1.619920 2.562747
0.110749 0.725258 -0.367566
2.545931 -1.587113 23.129874
4.409577 0.003171 -2.138278
0.182388 0.721970 0.592909
3.831463 1.559527 1.398149
0.167470 0.616949 0.037100
1.632604 -1.503584 22.299796
12.982511 -0.884734 0.866161
7.885947 1.443252 1.205448
-2.052154 -1.443348 35.060000
7.598910 -0.499990 1.093574
7.865994 1.342019 1.193413
-0.003668 1.615002 2.887241
4.113661 1.538009 1.793478
-1.844496 -2.074356 41.798629
8.651466 -0.616802 4.612885
7.745423 1.219625 2.134435
3.780200 1.554010 1.764786
-4.146057 -1.372005 34.967395
38.557177 -8.139032 14.543308
8.866072 1.524126 4.605210
3.780426 1.555459 1.765705
0.182464 0.617401 -0.219340
-4.106307 -1.506294 35.170741
37.873386 -7.713256 14.650771
7.423124 1.561180 5.506372
2.361992 1.609671 2.514443
-5.029127 -2.061214 35.428020
46.013282 -9.840436 10.722464
9.056281 1.208999 4.256285
2.395711 1.599007 2.544809
5.801905 -1.580811 14.499481
38.833679 -9.762556 14.744016
2.400910 1.602027 2.552078
2.092628 1.616356 -5.025902
5.557162 -1.678819 15.234404
38.828547 -10.801857 15.531743
5.772712 1.258254 6.378298
0.302566 1.575768 3.143373
2.294062 1.624713 -4.762646
5.775174 -1.959117 15.445481
40.516075 -12.718716 14.389013
6.620922 1.531852 12.130828
-0.670182 1.569633 3.973623
4.923714 1.541094 0.033851
5.736433 -1.949409 15.335681
-0.247302 1.630564 -0.527167
4.996549 1.507463 15.437712
-1.180967 1.596716 4.076533
5.319244 1.544203 0.860051
4.337284 -1.678779 16.230493
5.197430 1.538286 1.987643
3.146080 1.607166 -4.591513
3.826444 -1.982152 20.137538
7.586543 0.620212 1.481655
-1.035654 1.548298 4.405661
2.022657 -1.820111 21.949030
5.055013 1.330416 -2.226705
7.562357 0.755025 5.230962
5.257371 1.060658 -1.125466
-3.307504 -0.194038 33.510879
5.984301 -10.500811 24.053437
0.169774 0.419836 0.500123
5.176135 0.679454 6.469827
4.294231 0.825815 -1.882601
4.733161 -1.204974 15.985759
