ply
format ascii 1.0
element vertex 1711
property float x
property float y
property float z
end_header
1.163003 2.556529 -0.143528
1.163280 2.555640 -0.144530
1.214029 2.560426 -0.102610
1.257878 2.573070 -0.291777
1.268178 2.591038 -0.214649
1.271270 2.580788 -0.243434
1.271270 2.580788 -0.243434
1.279425 2.613604 -0.183813
1.044538 2.519078 -0.825794
1.275795 2.841507 -0.046469
1.267641 2.922929 0.065009
1.068457 2.515557 -0.863726
1.240040 2.541181 -0.614417
1.238633 2.531807 -0.733821
1.213685 2.510783 -0.949726
1.269208 2.525616 -0.912195
1.304860 2.529935 -0.836176
1.312343 2.555186 -0.746350
1.332777 2.552492 -0.817604
1.340649 2.587090 -0.761289
1.324482 2.572188 -0.694476
1.353101 2.565259 -0.925653
1.347698 2.587798 -0.862346
1.349772 2.604170 -0.821461
1.351796 2.600024 -0.823660
1.354814 2.918939 -0.507838
1.354814 2.918939 -0.507838
1.320834 3.054059 -0.277276
1.342090 2.569995 -1.037216
1.354480 2.850671 -0.771788
0.154787 1.262910 -0.728686
0.402464 1.374617 -0.271760
0.529756 1.500895 0.048651
0.810327 1.429611 -0.545824
0.795902 1.556209 -0.170599
0.873898 2.584803 0.049893
0.319287 2.546738 -1.115823
1.001852 2.563101 -0.111714
1.145540 2.571544 0.005354
1.189067 2.552398 -0.250635
0.990401 2.524547 -0.840296
1.264320 2.823127 -0.020878
1.190519 2.531596 -0.653744
1.313456 2.576860 -0.529963
1.139246 2.509341 -0.978632
1.335780 2.693748 -0.655960
1.338908 2.721013 -0.601213
0.324233 1.320715 -0.848669
0.610906 1.383002 -0.406256
0.877082 1.553324 -0.661228
0.233337 1.476070 -0.755974
0.768743 1.512320 -0.126415
0.880091 1.465311 -0.523036
0.735365 2.120327 -0.340001
0.254494 2.555252 -1.155979
1.024393 2.562228 -0.131277
1.056638 2.563760 -0.051205
1.171740 2.555911 -0.164146
1.224357 2.595516 0.099145
1.236486 2.674692 0.200089
1.194356 2.544091 -0.491536
1.288633 2.632897 -0.180646
1.116738 2.516902 -0.792807
1.218144 2.532365 -0.660489
1.282074 2.750900 -0.110021
1.286418 2.795428 -0.147863
1.286418 2.795428 -0.147863
1.285331 2.857490 -0.074065
1.357822 2.739859 -0.757270
0.505132 2.114489 -0.562437
1.167770 2.538760 -0.592621
1.306541 2.630064 -0.388088
1.281780 2.590942 -0.336906
1.311495 2.580124 -0.527651
1.190034 2.515750 -0.961054
1.333705 2.776405 -0.409383
1.300571 2.921696 -0.178511
1.335873 2.693491 -0.656155
1.334363 2.537769 -0.985782
1.361418 2.580770 -0.896244
1.359980 2.649955 -0.927960
1.351961 2.695701 -0.920707
0.248126 1.494864 -0.809756
1.310583 2.637028 -0.488320
1.249821 3.192188 0.134686
1.359937 2.573005 -1.009456
1.372473 2.791110 -0.645916
0.793385 1.415422 -0.558848
0.915846 1.486108 -0.506657
0.726467 1.404680 0.055804
1.329802 3.207399 -0.144829
1.217394 2.515698 -0.988899
0.169365 1.287078 -0.622863
0.229806 1.467659 -0.744491
0.807689 1.366501 -0.708809
0.773889 1.550293 -0.135643
0.913367 1.555689 0.186276
0.671619 1.506555 -0.693822
0.884473 1.377582 -0.767601
0.529671 2.039198 -0.280524
0.399823 2.133920 -0.511312
0.910591 2.574001 0.202527
1.003962 2.574988 0.282214
1.186660 2.600565 0.328260
1.050510 2.562117 0.004256
1.128895 2.573925 0.170980
1.233371 2.611777 0.091236
1.164702 2.550355 -0.326969
1.023926 2.521471 -0.805942
1.066187 2.523836 -0.791965
1.150069 2.538180 -0.555977
1.149165 2.539774 -0.554938
1.272169 2.606429 -0.234388
1.277627 2.635520 -0.188264
1.100666 2.518429 -0.791541
1.304095 2.615793 -0.446435
1.291918 2.644528 -0.307344
1.301961 3.026344 -0.138154
1.312243 3.086696 -0.186395
1.308354 3.098899 -0.162499
1.355364 2.655232 -0.865639
1.360762 2.646584 -0.872402
0.613211 1.290062 -0.070906
0.264413 1.555861 -0.767769
0.732087 2.570372 0.339253
0.925720 2.574320 0.405727
0.877140 2.581792 0.045414
0.808026 2.527035 -1.028695
0.994665 2.516772 -0.943418
1.015744 2.522028 -0.921545
1.249291 2.536850 -0.524238
1.195679 2.518269 -0.922178
1.327062 2.586826 -0.630770
1.332616 2.571313 -0.716978
1.322256 3.124021 -0.093250
0.250318 1.339995 -0.717703
0.558323 2.057694 -0.323315
0.638818 2.108953 -0.511999
0.422467 1.374865 -0.746812
0.796534 1.386424 -0.616142
1.094113 2.527350 -0.746249
1.099297 2.519638 -0.789969
0.266389 1.540975 -0.755385
0.182491 1.236324 -0.650760
0.268860 1.338000 -0.833110
0.808822 1.400665 0.132906
0.999208 1.484515 -0.560617
0.989584 1.487483 -0.650730
0.573493 2.122427 -0.550035
0.479716 2.584597 0.341108
0.577539 2.571107 0.270576
0.535831 2.600467 0.401853
0.925620 2.327949 -0.253636
0.698791 2.587820 0.202995
0.696973 2.579450 0.289633
0.706592 2.585618 0.321513
1.018525 2.579753 0.406921
0.902673 2.571997 -0.016385
1.008592 2.563459 0.172470
1.201291 2.601150 0.222032
1.198063 2.567044 -0.024170
1.242226 2.596907 -0.007361
1.234111 2.610801 0.090203
1.244093 2.576442 -0.090622
0.857821 2.557012 -1.093564
0.903098 2.519917 -1.056150
1.027330 2.516589 -0.845321
1.188114 2.547713 -0.550323
1.272849 2.605155 -0.235664
1.269182 2.548699 -0.540264
1.301927 2.584441 -0.465976
1.185236 2.510554 -0.992101
1.172456 2.525811 -1.045393
1.294138 2.948343 -0.036598
1.308681 2.969081 -0.232385
1.351644 2.677139 -0.930724
0.379730 1.324063 -0.720914
0.316687 2.137451 -0.054901
0.754683 2.580474 0.112206
1.061606 2.565976 -0.082689
0.579933 1.310691 0.005270
0.308618 1.531168 -0.629227
0.924510 1.475846 -0.427259
0.333119 2.132726 -0.094645
0.971416 2.574067 0.107220
1.266602 3.113038 0.111291
0.892953 1.435061 -0.614925
0.758055 2.086863 -0.275390
1.333035 3.160580 -0.233074
0.948719 2.574318 0.045331
0.264953 1.328681 -0.707628
0.474805 1.375765 -0.699123
0.898708 1.563501 -0.665288
0.944299 1.532428 -0.646425
0.051400 2.136405 -0.297476
0.823641 2.093279 -0.305156
0.549195 2.578360 0.233258
0.615848 2.580423 0.322831
0.615447 2.579813 0.323942
0.664552 2.579745 0.256703
0.688605 2.573222 0.252656
0.704631 2.586694 0.262163
-0.212107 2.616437 -1.219586
0.889489 2.572609 0.282726
0.090173 2.568847 -1.176745
0.319721 2.547326 -1.114307
0.340539 2.554628 -1.137966
0.608484 2.565358 -1.123027
1.226844 2.514516 -0.908591
1.265257 2.521877 -0.938086
1.261550 2.525909 -0.934650
1.339002 2.703281 -0.645148
1.352168 2.775061 -0.676487
1.351092 2.696870 -0.960703
1.361352 3.058580 -0.453590
0.843767 1.572262 -0.184018
0.827232 2.575753 0.341985
0.231483 2.549417 -1.047402
1.145183 2.555689 -0.204476
1.139533 2.561730 -0.197097
1.262317 2.533934 -0.744322
1.309690 2.836943 -0.250338
1.308418 2.838776 -0.248432
1.359701 2.642618 -0.911272
1.398294 2.659634 -1.040834
0.085168 2.138649 -0.256211
1.199934 2.541500 -0.540719
0.829496 1.584213 -0.789041
0.543722 1.359832 -0.119462
0.578853 1.374329 -0.226973
0.800035 1.371721 0.146450
0.877591 1.377625 -0.723855
0.908684 1.439273 -0.664840
0.886706 1.448721 -0.463010
0.812670 1.529471 0.100395
-0.141554 2.606627 -0.661733
0.536675 2.586752 0.247081
0.027166 2.572406 -0.829932
0.684007 2.574576 0.217324
0.712886 2.573874 0.204271
0.888836 2.572858 0.282623
0.798429 2.574896 0.034902
0.867817 2.580843 -0.028464
0.871514 2.577801 -0.032751
0.813836 2.579404 0.161361
0.266399 2.564792 -1.155431
1.200147 2.494430 -0.434307
1.247533 2.636857 0.047288
1.241653 2.535319 -0.682687
1.303131 2.594405 -0.445242
1.303146 2.594414 -0.445020
1.323043 2.747998 -0.444434
1.294907 2.979313 -0.089818
1.346658 2.788016 -0.736579
1.361683 2.866589 -0.704025
1.359222 2.924769 -0.739162
1.389080 3.110434 -0.568731
1.394585 3.107574 -0.592273
1.397381 3.126038 -0.593685
1.395545 3.135521 -0.554731
1.379186 3.153858 -0.491600
0.560004 1.372936 -0.115763
1.031281 2.522320 -1.046342
1.310123 2.578888 -0.526959
1.308904 2.580669 -0.524552
1.388409 3.066759 -0.548442
0.563092 1.297659 0.000367
0.612451 1.498011 -0.711137
0.919258 1.465332 -0.413391
0.630907 2.111874 -0.504323
0.928872 2.322244 -0.325912
1.416351 2.774644 -1.009068
1.365898 2.952488 -0.707620
1.365898 2.952488 -0.707620
0.942463 1.527143 -0.660743
0.939977 1.527697 -0.658423
0.199522 1.742039 -0.282659
0.608293 2.544024 -1.114270
0.633768 2.566267 -1.125941
-0.274874 2.613920 -0.646695
-0.008080 2.565566 -1.009349
0.064807 2.566275 -1.006574
0.024352 2.560007 -1.053385
0.165678 2.555354 -1.087839
0.158636 2.560264 -1.167366
-0.338196 2.713734 -0.574595
-0.212943 2.595327 -0.816251
-0.101439 2.576106 -1.048345
-0.073456 2.568563 -1.071344
-0.073456 2.568563 -1.071344
-0.330999 2.707653 -0.623729
-0.308913 2.689101 -0.784511
-0.194924 2.592564 -1.093666
-0.231589 2.626105 -1.215015
-0.253377 2.745236 -1.147158
-0.253377 2.745236 -1.147158
-0.232059 2.610715 -0.687714
-0.006872 2.557535 -1.061145
-0.355076 2.733087 -0.451058
0.017773 2.558712 -1.119514
0.017773 2.558712 -1.119514
-0.052945 2.584682 -1.191664
-0.358276 2.996069 -0.657690
-0.144663 2.599071 -0.809858
-0.279784 2.742139 -0.916805
-0.225613 2.421212 -0.241388
0.319846 2.555895 -1.141221
-0.484097 3.159266 0.237777
-0.291689 2.640684 -0.828860
-0.372699 2.651837 -0.128591
-0.372699 2.651837 -0.128591
-0.186081 2.611928 -0.495495
0.083876 2.559552 -0.995969
-0.415404 3.044700 -0.018402
-0.225717 2.609571 -1.168878
0.843333 2.507362 -0.955707
-0.181174 2.602591 -0.715321
-0.394424 2.835613 -0.221711
-0.279049 2.622183 -0.809303
-0.277633 2.702731 -1.050336
-0.284717 2.629076 -0.847842
-0.092267 2.599842 -0.708923
-0.099432 2.602981 -0.634836
-0.375819 2.711679 -0.250068
-0.407603 2.845152 -0.039787
0.625354 1.498514 -0.833533
0.808948 1.539592 -0.743283
0.964092 1.655454 0.119706
0.406176 2.131143 -0.051623
0.624105 2.583051 0.335879
0.697934 2.570854 0.328553
0.746334 2.575725 0.289427
0.779752 2.579956 0.259680
0.787548 2.577018 0.206651
0.787548 2.577018 0.206651
0.857120 2.568907 0.142041
1.057190 2.564243 0.250228
1.057190 2.564243 0.250228
0.971660 2.571315 0.034663
1.172588 2.601077 0.394354
0.371468 2.545347 -1.119609
1.253770 2.593797 -0.088654
0.887838 2.539489 -1.080695
0.929094 2.531506 -0.931349
1.139449 2.519672 -0.833853
1.203707 2.534853 -0.623289
1.263759 2.546953 -0.498227
1.273359 2.520090 -0.900696
1.308312 2.562301 -0.627354
1.291172 2.672377 -0.293100
1.328118 2.561998 -0.808659
1.350632 2.567682 -0.839611
1.308371 2.705640 -0.416096
1.290343 2.864455 -0.170930
1.290287 2.908383 -0.078617
1.362447 2.590612 -0.985512
1.358138 2.577593 -0.944724
1.358236 2.630337 -0.900823
1.361211 2.627890 -0.903889
1.347726 2.611148 -0.817939
1.345172 2.642488 -0.798309
1.349430 2.660509 -0.944000
1.353566 2.675562 -0.932378
1.351430 2.871053 -0.555762
1.385398 2.654012 -1.028275
1.358434 2.837806 -0.706500
1.329230 3.054920 -0.349424
1.329036 3.055132 -0.349332
1.409544 2.762022 -1.050368
1.366653 2.935191 -0.714355
1.428462 2.849694 -1.046986
1.355768 2.972069 -0.848061
1.357971 3.008044 -0.811976
1.382462 3.010955 -0.705838
1.390464 3.110107 -0.569462
1.343702 3.011276 -0.860532
1.440876 2.901303 -1.022898
1.357541 3.047580 -0.828487
0.257884 1.566956 -0.780680
0.278655 1.544273 -0.741890
0.859061 1.588754 -0.200112
0.951333 2.578931 0.382862
0.951333 2.578931 0.382862
0.095068 2.568936 -1.177890
1.093784 2.567973 0.135299
1.093907 2.568041 0.135365
1.168736 2.559282 -0.183212
1.167249 2.547366 -0.105341
1.245616 2.565208 -0.228811
1.134666 2.524201 -0.720279
1.134666 2.524201 -0.720279
1.191993 2.549257 -0.530884
1.301496 2.619326 -0.461021
1.312052 2.533085 -1.025301
1.352861 2.661295 -0.842868
1.397188 3.110004 -0.555386
1.438114 2.872993 -1.046681
1.360303 3.058683 -0.809431
1.370366 3.026807 -0.795389
0.601552 1.298525 0.081425
1.167606 2.504435 -0.880017
1.417824 2.772579 -1.010986
1.358035 2.915142 -0.730366
1.416418 2.781902 -1.046430
0.888120 1.564990 -0.100706
0.869723 1.598944 0.056986
1.286348 2.532911 -0.748329
-0.059925 1.491531 -0.847649
-0.362694 2.649409 0.322057
0.134553 2.560248 -0.934257
-0.243227 2.601421 -0.981634
-0.053232 2.567250 -1.074905
-0.176780 2.589821 -1.113894
-0.225304 2.620007 -1.216578
-0.378380 2.752269 -0.265087
0.187595 1.285876 -0.662783
0.195107 1.351366 -0.688756
0.353510 1.666823 -0.820932
-0.233906 2.620890 -0.433582
-0.135473 1.477807 -0.591233
0.089204 1.228087 -0.695586
0.256591 1.467376 -0.746723
0.256591 1.467376 -0.746723
0.620662 1.475266 -0.535709
0.875757 1.365140 -0.775021
0.279519 1.527128 -0.729687
0.640969 1.503050 -0.561973
0.602611 1.495571 -0.849161
0.720990 1.534052 -0.786857
0.798236 1.538671 -0.754880
0.797788 1.539273 -0.754124
0.799431 1.566760 -0.800065
0.815480 1.552374 -0.747962
0.057678 2.133212 -0.294199
0.196074 2.129385 -0.316380
0.501001 2.118846 -0.557411
0.999489 2.572773 0.311270
1.170784 2.565816 0.099379
1.069872 2.560857 -0.093070
1.239898 2.562561 -0.205431
0.089388 2.570573 -1.175811
0.202140 2.555222 -1.128658
1.137641 2.547768 -0.563558
1.238474 2.553935 -0.373592
1.238659 2.553179 -0.374569
0.969343 2.523967 -0.819603
1.069193 2.516663 -0.796614
1.116722 2.527078 -0.767461
1.266735 2.539444 -0.600921
1.267704 2.536979 -0.604659
0.860809 2.512074 -1.016480
0.985345 2.516042 -0.920540
1.043330 2.514302 -0.848275
1.089939 2.508621 -0.850264
1.115050 2.514586 -0.910940
1.115050 2.514586 -0.910940
1.261479 2.524466 -0.767086
1.312908 2.554340 -0.725404
1.299926 2.961839 -0.107955
1.116162 2.517998 -0.984219
1.218546 2.527045 -0.957899
1.327188 2.550685 -0.749479
1.331610 2.549794 -0.819794
1.307552 2.531000 -1.005999
1.346327 2.767677 -0.621493
1.354059 2.755895 -0.677039
1.348925 2.549881 -1.021710
1.350999 2.763518 -0.721725
1.372276 2.620325 -1.020773
1.362586 2.890403 -0.710910
1.333837 3.317112 -0.174629
1.336041 3.304994 -0.144107
1.401535 2.735355 -1.057261
1.357409 2.918023 -0.787281
1.370139 2.960098 -0.722059
1.411552 2.770122 -1.029795
1.394944 3.083415 -0.644651
1.394944 3.083415 -0.644651
1.378329 3.054110 -0.755136
1.430208 2.905472 -1.063839
1.386847 3.125600 -0.765266
1.403122 3.218719 -0.723605
1.413063 3.217847 -0.671980
0.411001 1.359604 -0.743974
0.224284 1.460873 -0.858634
0.236689 1.466966 -0.785170
0.236689 1.466966 -0.785170
0.820781 1.564538 -0.759741
0.820605 1.564357 -0.759929
0.078455 2.141261 -0.307068
0.218437 2.120846 -0.313912
1.378637 2.990036 -0.664448
1.394491 3.104895 -0.702128
1.451063 2.898749 -1.024845
1.446304 2.899404 -1.026678
0.418774 1.334679 -0.752656
0.833227 1.577562 -0.787753
0.874659 1.553208 -0.765251
0.660105 2.051596 -0.311761
1.309024 2.986330 -0.064333
1.088823 2.508620 -1.022507
1.381115 2.655995 -1.031477
0.245564 1.323917 -0.650249
0.582526 1.347020 -0.454722
0.572824 1.371759 -0.393716
0.822670 1.383334 0.015943
0.902625 1.476038 -0.575822
0.679244 1.515132 -0.722254
1.022796 2.320826 -0.327058
0.764400 1.561049 -0.748303
1.371306 2.866727 -0.744715
1.407070 2.681741 -1.025079
0.258434 2.543372 -1.141064
0.603907 1.341201 0.070081
0.461638 2.046990 -0.238963
0.162940 2.143536 -0.257565
0.895074 2.579218 0.304734
0.893041 2.579369 0.306378
0.923037 2.578436 0.042291
0.649654 2.594166 0.444686
0.476055 2.602494 0.430588
-0.318653 2.638176 0.079327
-0.409029 2.687038 0.098785
-0.349522 2.917690 -0.433237
-0.364784 2.986183 -0.585348
-0.364575 3.111942 -0.685004
-0.364575 3.111942 -0.685004
-0.429022 2.789904 0.406826
-0.427613 3.083568 -0.179870
-0.426320 3.085004 -0.216174
-0.437218 3.106877 -0.121711
-0.426764 3.135575 -0.057853
-0.435915 3.133433 -0.101464
0.364712 1.920526 -0.216209
0.429227 1.352971 -0.220413
0.753430 2.107197 -0.330599
0.236929 1.545257 -0.423845
0.905882 1.619867 0.148733
0.721948 1.532643 -0.788771
0.796376 1.540677 -0.752246
0.130273 2.131216 -0.202615
1.099765 2.563301 0.120811
1.132043 2.519366 -0.768104
1.169127 2.514415 -0.803245
1.115839 2.528581 -1.044347
1.272796 2.522063 -1.000312
1.290004 2.529163 -0.868342
1.294059 2.530968 -0.908327
1.311777 3.049083 -0.192702
1.436507 3.004623 -1.082145
1.452165 3.012195 -1.057289
1.466584 3.064442 -1.031429
0.268431 1.517747 -0.879803
0.277151 1.576211 -0.801323
0.931800 1.679696 -0.553869
0.531410 2.119482 -0.467084
-0.123488 2.566396 -1.124360
-0.105312 2.570575 -1.092474
-0.085140 2.568505 -1.000818
-0.064282 2.565025 -1.065530
-0.013334 2.566721 -0.997891
-0.010338 2.564468 -1.001410
0.004837 2.574536 -0.895322
0.004837 2.574536 -0.895322
0.188336 2.552867 -1.069507
1.267106 2.537703 -0.484628
1.218176 2.519882 -0.841609
1.298867 2.529122 -1.025581
1.243776 2.867107 0.212689
0.251306 1.327332 -0.854557
-0.145775 2.581181 -0.876152
-0.092253 2.576320 -0.940523
-0.013388 2.561334 -1.151254
0.207027 2.546173 -1.070095
1.143807 2.516955 -0.840510
0.255751 2.557151 -1.150072
0.852262 2.522613 -1.057275
0.971832 1.689419 -0.555239
0.398150 2.115221 -0.496306
0.469135 2.597562 0.240039
-0.226784 2.631620 0.338329
-0.355215 2.644334 0.122901
-0.215577 3.001021 0.377333
-0.418949 2.784416 0.406946
0.947384 1.407662 -0.104458
0.618678 2.586244 0.383317
0.900081 1.642851 0.146839
-0.103782 1.447097 -0.623303
0.025183 2.611908 0.276222
0.901478 1.381602 0.049506
0.786478 1.483427 0.154859
-0.337422 2.787786 0.376341
0.123425 1.251576 -0.595262
0.246151 1.304050 -0.622684
0.114517 1.260890 -0.602443
0.465239 1.363221 -0.176443
0.356523 1.347964 -0.266420
0.904304 1.554446 0.191892
0.813675 1.516907 0.220920
0.070841 1.431600 -0.681373
0.381663 2.130569 -0.093093
1.027906 2.562991 -0.271830
0.978527 2.569445 -0.108381
0.954700 2.570196 0.372344
0.873191 2.579731 0.215554
0.731170 2.590143 0.115497
0.727508 2.587235 0.117190
0.654403 2.585642 0.058255
0.647700 2.588798 0.361989
0.555898 2.582705 0.195779
0.539442 2.591545 0.200656
-0.097422 2.618731 0.185702
-0.104259 2.619624 0.087491
-0.167386 2.619721 0.131627
-0.358774 2.670274 -0.281783
-0.363176 2.666697 -0.312402
-0.352477 2.677257 -0.434436
-0.043904 2.669858 0.430414
-0.068589 2.623992 0.373366
-0.088349 2.635390 0.387766
-0.178333 2.628087 0.337960
-0.158217 2.618762 0.215519
-0.187483 2.620500 0.285223
-0.195457 2.623645 0.234327
-0.196553 2.623229 0.234894
-0.223044 2.622657 0.218074
-0.271319 2.619347 0.142085
-0.298153 2.626473 0.164956
-0.266355 2.625940 0.057047
-0.263606 2.629601 0.014843
-0.285398 2.631730 0.077676
-0.314759 2.632968 0.060159
-0.338566 2.635655 0.081840
-0.320783 2.632565 -0.000707
-0.337766 2.632516 0.001685
-0.352344 2.926102 -0.663233
-0.170992 2.674797 0.417211
-0.223180 2.630084 0.297741
-0.271121 2.629285 0.260168
-0.267921 2.628114 0.222533
-0.299640 2.636478 0.282546
-0.300052 2.636561 0.282611
-0.284310 2.636824 0.191580
-0.318290 2.638493 0.222027
-0.368460 2.642449 0.185824
-0.364620 2.638469 0.062517
-0.397062 2.783215 -0.185630
-0.363518 2.857678 -0.351540
-0.356829 2.961546 -0.570478
-0.366454 3.006087 -0.564008
-0.354657 3.098212 -0.676371
-0.335100 3.128582 -0.705470
-0.218925 2.683180 0.415801
-0.354099 2.659469 0.369148
-0.348264 2.648964 0.285718
-0.386176 2.657641 0.202931
-0.394594 2.666359 0.284156
-0.403672 2.655727 0.249367
-0.403364 2.840169 0.062580
-0.412376 2.916938 -0.111235
-0.391856 3.034056 -0.294891
-0.368637 3.199080 -0.481053
-0.377789 3.258761 -0.684228
-0.128737 2.953658 0.432631
-0.200687 2.953874 0.393945
-0.199062 2.953421 0.393793
-0.420093 3.020687 -0.169199
-0.411133 3.086003 -0.002773
-0.411636 3.085423 -0.002515
0.030018 1.207466 -0.687990
0.488465 1.360008 -0.377034
0.385583 1.366406 -0.435460
0.364106 1.367543 -0.211285
0.115259 1.419227 -0.690347
0.842656 1.606986 0.156639
-0.071402 1.473656 -0.563759
0.455347 1.580310 0.005822
0.382667 2.111800 -0.122008
0.578899 2.590997 0.316163
0.039476 2.613080 0.302978
0.385271 1.372835 -0.173915
0.396516 1.576678 0.125286
0.154603 2.156392 -0.158624
-0.302698 2.673359 -0.804470
-0.386651 2.704889 -0.147314
-0.296767 2.749432 -0.816003
-0.374088 2.816361 -0.302264
-0.350200 2.787893 -0.463084
-0.247578 2.618425 -0.125358
-0.367267 3.231715 -0.557843
-0.347118 2.678403 -0.475611
1.213438 2.553390 -0.227182
-0.418218 3.199621 -0.247612
-0.270330 2.647082 -1.077424
-0.376603 2.677021 0.147060
0.086063 1.209456 -0.739811
0.888625 1.395322 0.067373
0.578793 1.339249 -0.279934
0.206037 1.380619 -0.551115
0.015923 1.421838 -0.753606
0.581568 1.516732 0.084504
0.509720 1.531478 0.074352
0.803222 2.582642 0.193354
0.639509 2.593513 -0.003836
0.593904 2.588527 0.284055
0.385075 2.594989 0.316008
0.373630 2.600689 0.266738
-0.105749 2.616689 0.171275
-0.365466 2.683938 -0.378787
-0.109579 2.616457 0.215375
-0.109579 2.616457 0.215375
-0.266571 2.625197 0.095830
-0.222345 2.625781 0.256973
-0.362398 2.952470 -0.526013
-0.213417 2.646343 0.380038
-0.385098 2.648605 0.187898
-0.382306 2.652142 0.185760
-0.144051 2.946175 0.425876
0.691717 1.365646 -0.447469
-0.098676 1.425126 -0.622273
-0.128521 2.618333 0.111295
-0.230231 2.627416 0.281731
-0.394331 2.660809 -0.019671
-0.389658 2.676996 -0.146172
-0.364235 2.932878 -0.435522
-0.362359 2.937040 -0.475328
-0.419285 2.677751 0.222780
-0.415734 2.812167 -0.016468
0.466737 1.340510 -0.232136
0.446870 1.356724 -0.230595
0.779274 1.411249 0.137790
0.772770 2.106294 -0.341960
0.477308 1.352609 -0.371602
0.785937 1.387456 0.065390
0.513992 1.519697 0.092860
-0.073026 2.372568 -0.316485
0.096768 2.161845 -0.263769
0.807837 2.091409 -0.309119
-0.397401 3.410369 -0.526182
0.645876 1.398559 -0.324605
0.258692 1.319065 -0.513452
0.819580 1.425233 0.139596
0.280698 1.408022 -0.530965
0.140888 1.374992 -0.684871
0.531024 1.524147 0.081748
-0.013488 1.453160 -0.608035
0.477163 1.591567 -0.067660
-0.048814 1.466126 -0.501293
0.411145 2.046156 -0.218862
0.735851 2.583629 -0.009615
0.740526 2.578695 0.279528
-0.136922 2.579412 -1.029443
0.573384 2.589067 0.345786
0.518583 2.584311 0.391406
0.312500 2.591807 0.198738
-0.288184 2.614753 -0.805263
-0.350020 2.975045 -1.263647
-0.324013 2.637710 -0.441539
-0.191974 2.617977 -0.005320
-0.325546 2.629819 -0.289838
-0.346315 2.874172 -0.661241
-0.151443 2.626164 0.270835
-0.153879 2.624259 0.273060
-0.123723 2.617025 0.167965
-0.124954 2.614896 0.169266
-0.176032 2.618884 0.115981
-0.339555 2.632546 -0.163494
-0.339609 2.631987 -0.162524
-0.337471 2.633862 -0.124049
-0.338466 2.631720 -0.122646
-0.359029 2.637289 -0.163721
-0.359965 2.847147 -0.454312
-0.365156 3.121184 -0.573837
-0.429101 2.682164 0.285219
-0.383898 3.326380 -0.501079
0.067613 2.597857 0.318381
-0.358576 2.695424 -0.460579
-0.359326 2.693953 -0.458958
-0.383746 2.690657 -0.155194
-0.362937 2.837373 -0.482148
-0.418518 2.866272 -0.170522
-0.418518 2.866272 -0.170522
-0.416967 3.131913 -0.255670
-0.418013 2.961718 -0.008940
-0.418013 2.961718 -0.008940
-0.442822 2.774054 0.380260
0.869302 1.423990 -0.068232
0.736799 1.404519 0.121449
-0.427126 2.954860 -0.051453
0.727203 1.362827 -0.533821
0.831178 1.349239 -0.094181
-0.284615 2.806414 -1.220734
-0.360323 3.015023 -0.571139
-0.342138 2.652623 0.350259
0.153650 1.426483 -0.504115
0.284899 2.143923 -0.028419
0.511926 1.559723 -0.112715
0.826932 1.405505 0.042196
0.847595 1.416366 0.202109
0.132626 1.465978 -0.452976
0.495831 1.574283 0.045463
0.456768 1.565404 0.075230
1.024790 2.559045 -0.268855
0.681410 2.587607 0.362992
0.527530 2.593362 0.383948
0.460805 2.591551 0.244913
0.343146 2.596716 0.295496
0.336791 2.589671 0.218495
0.291493 2.609460 0.416973
-0.024978 2.613422 0.125671
-0.101459 2.622461 0.227936
-0.176356 2.618621 0.116043
-0.367683 2.675930 -0.334890
-0.369372 2.722291 -0.403215
-0.369372 2.722291 -0.403215
-0.356900 2.836253 -0.502078
-0.359836 2.845814 -0.488541
-0.046507 2.648812 0.388865
-0.100161 2.624192 0.310324
-0.118675 2.665450 0.432270
-0.374442 3.158480 -0.558688
-0.426098 3.055273 -0.196020
-0.371595 2.910400 0.444106
0.899182 1.377225 -0.708303
0.404259 1.364780 -0.692053
0.091024 1.232715 -0.615275
0.097304 1.434813 -0.660384
0.000817 1.480401 -0.775019
-0.076472 1.467592 -0.559135
-0.207725 2.628939 0.296851
-0.391666 2.735278 -0.187699
0.887474 1.380908 0.046539
0.263036 1.397371 -0.535046
0.925954 1.601010 0.172596
0.826010 1.345738 -0.089175
0.069210 1.243885 -0.626020
0.117968 1.447237 -0.575267
0.565043 1.322225 -0.431004
0.029164 1.235258 -0.687642
0.588689 1.323581 0.077696
0.180769 1.315741 -0.603998
0.588704 1.515311 0.118716
-0.239297 2.592170 -0.185301
0.592504 1.466777 0.077814
0.032935 1.401941 -0.733954
-0.279946 2.716288 -1.035141
0.178136 1.414214 -0.521675
0.239684 1.307252 -0.819130
0.381451 1.355029 -0.448545
0.259228 1.336642 -0.639121
0.908799 1.555338 0.185484
0.482159 1.587995 -0.017377
-0.084494 1.443120 -0.614644
1.226316 2.559825 -0.210240
-0.047464 2.560639 -1.104088
-0.162832 2.590954 -0.814636
-0.392988 2.733637 -0.149509
-0.381659 3.263778 -0.686289
-0.375702 2.654348 0.142103
-0.407638 3.113442 -0.003448
0.909665 1.387414 0.108906
0.411080 1.363164 -0.274745
-0.053690 1.420657 -0.484247
-0.020439 1.426215 -0.845464
-0.085239 1.486146 -0.547341
-0.113824 1.492403 -0.565359
0.121069 2.153649 -0.202835
-0.368591 2.642261 0.185919
0.196058 2.543846 -1.131812
0.322182 1.345104 -0.215698
1.056504 2.562502 -0.119031
0.735934 2.583497 -0.008705
0.758334 2.590542 0.437682
0.740038 2.581774 0.275525
0.741664 2.582561 0.275666
0.618510 2.588003 0.260857
0.550952 2.597985 0.279027
-0.277746 2.626265 -0.989285
0.360382 2.607098 0.368685
-0.292475 2.647216 -0.726262
-0.006871 2.638247 0.408520
-0.202153 2.623336 0.178120
-0.265882 2.626627 0.094605
-0.356583 2.644653 -0.023305
-0.378794 2.655223 -0.068746
-0.352426 2.925518 -0.662441
-0.125677 2.675800 0.421842
-0.272170 2.628711 0.260960
-0.236383 2.660309 0.403164
-0.406663 2.663027 0.189820
-0.413827 2.687531 0.100340
-0.405626 2.853055 -0.138817
-0.406173 2.852230 -0.138061
-0.365530 3.147486 -0.495355
-0.419840 3.034493 -0.222420
-0.077196 1.457882 -0.724503
0.463326 1.564075 0.138203
0.639993 2.585050 0.130405
0.101817 2.622523 0.375177
-0.173133 2.619818 -0.006290
-0.274036 2.669239 0.389134
-0.415571 2.807478 -0.015715
-0.424521 3.045240 -0.191219
0.906091 1.647125 0.141386
0.414979 1.576918 0.063038
-0.141238 2.376873 -0.269707
0.086750 2.602516 0.371265
0.289878 2.128877 -0.064216
-0.300151 2.633070 0.223893
0.714534 2.065669 -0.321083
0.872774 1.414204 -0.465353
0.551859 1.347820 -0.297003
0.209618 1.323676 -0.640193
0.162728 1.434614 -0.602328
0.116566 1.426333 -0.746529
0.569916 1.494957 -0.113166
0.094265 1.449796 -0.580824
0.095088 1.449950 -0.581368
-0.036132 1.419903 -0.502008
0.515950 2.592959 0.373064
-0.173525 2.622325 -0.006524
-0.387739 2.696800 -0.197057
0.369949 1.317702 -0.710198
0.890752 1.422588 -0.063043
0.568902 1.314097 0.015062
-0.044166 1.457129 -0.698588
-0.084307 1.462564 -0.840539
0.018422 1.443845 -0.538086
0.455691 1.591650 -0.041112
0.513530 2.127063 -0.137623
0.245438 1.296202 -0.843986
0.052896 1.205901 -0.686715
0.034610 1.395431 -0.804847
0.377648 1.370788 -0.165557
0.983591 2.344890 -0.286252
0.792491 1.389489 0.058841
0.403693 1.571393 0.066090
0.435175 1.350805 -0.154911
0.050970 1.456409 -0.548801
-0.373828 2.644622 0.170929
0.123047 1.429665 -0.459549
1.055392 2.574484 0.307859
0.114495 2.554084 -0.983778
0.896850 2.567644 0.187184
0.904102 2.577704 0.102247
0.690780 2.581044 0.334444
0.595733 2.584542 0.167700
0.420432 2.607089 0.331421
0.374953 2.604401 0.413048
-0.358861 2.679612 -0.410752
-0.127755 2.623431 0.333097
-0.377612 2.653959 0.098646
-0.408652 2.687318 0.098284
-0.399600 2.799574 -0.181835
-0.072859 2.846404 0.442829
-0.395100 2.666128 0.284952
-0.399120 2.663574 0.288016
-0.408022 2.818320 -0.024016
-0.248183 2.888081 0.374134
-0.172685 2.929379 0.414170
-0.189232 2.952269 0.405663
-0.408234 2.804800 0.410533
-0.421573 2.826781 0.418153
-0.426858 3.041619 -0.186305
-0.391715 3.378549 -0.480382
-0.393871 3.362135 -0.485980
0.436606 1.352135 -0.154214
0.602206 2.066412 -0.283598
-0.068208 2.622121 0.056625
-0.077498 2.653427 0.404261
-0.072867 2.656833 0.401263
-0.109638 2.623206 0.378802
-0.435168 2.706868 0.225879
-0.347306 2.749220 0.380301
-0.380984 2.771577 0.404019
-0.414081 2.763997 0.385457
-0.416795 3.037415 -0.073877
-0.484569 3.095486 0.244405
-0.435118 3.270181 -0.201181
0.928449 1.603273 0.169976
0.312072 2.137095 -0.043057
0.201211 2.142992 -0.211623
-0.287880 2.611361 -0.160719
0.226189 2.162527 -0.131360
0.271897 1.949754 -0.184873
1.079361 2.555751 -0.266608
1.070026 2.571590 0.056623
1.010307 2.570159 0.213670
1.010307 2.570159 0.213670
0.827480 2.589971 0.091625
0.766494 2.574689 0.141659
0.536448 2.587994 0.247071
-0.264512 2.616008 -1.035114
0.548477 2.592657 0.408479
0.517786 2.590716 0.390591
0.402661 2.603851 0.369044
0.393713 2.595008 0.206631
-0.301261 2.631557 -0.625975
-0.303276 2.630000 -0.623464
0.018064 2.620525 0.238157
0.086060 2.661783 0.443999
0.050160 2.661820 0.441496
0.008642 2.634763 0.430370
0.009273 2.634992 0.429712
-0.363800 2.664709 -0.275199
-0.079531 2.629731 0.401916
-0.079531 2.629731 0.401916
-0.137745 2.642852 0.396523
-0.360777 2.645524 0.145395
-0.376814 2.650246 0.018017
-0.382390 2.652134 -0.021940
-0.399601 2.659561 0.001836
-0.391717 2.727485 -0.163240
-0.392679 2.756746 -0.146494
-0.362937 2.947898 -0.560253
-0.201085 2.679270 0.411606
-0.206237 2.705266 0.417113
-0.239743 2.692510 0.412172
-0.290168 2.643967 0.342372
-0.379885 2.673283 0.299125
-0.351528 2.651124 0.253928
-0.420829 2.707484 0.158016
-0.420609 2.707409 0.124022
-0.404408 2.777307 -0.101843
-0.105880 2.806677 0.431315
-0.411630 2.869810 -0.109623
-0.367195 3.047377 -0.408887
-0.369582 3.073662 -0.513922
-0.369967 3.087225 -0.588319
-0.365229 3.110503 -0.588853
-0.370500 3.128776 -0.560654
-0.109774 2.888703 0.439277
-0.181214 2.864249 0.412960
-0.114164 2.926533 0.436485
-0.112738 2.928273 0.435340
-0.252253 2.853049 0.374128
-0.453431 2.727209 0.305631
-0.414031 2.939986 -0.091465
-0.411381 2.918895 -0.112927
-0.410657 2.953474 -0.178857
-0.416546 2.993531 -0.177226
-0.366367 3.146675 -0.493794
-0.237337 2.903728 0.378936
-0.242823 2.971241 0.359748
-0.239216 2.973156 0.357758
-0.377042 3.271922 -0.493513
-0.410791 2.874988 0.431677
0.635479 1.477871 0.118612
0.816103 1.562241 0.218012
0.499070 1.553246 0.045684
0.859919 1.613141 0.147178
0.738540 2.581171 0.149897
0.481489 2.588964 0.249768
-0.208655 2.618640 0.143228
-0.170759 2.636795 0.379651
-0.198661 2.634420 0.358068
-0.397343 2.784191 -0.185799
-0.416339 2.794824 0.042558
-0.398903 2.893417 -0.230273
-0.443819 2.885029 0.355721
0.396933 2.106478 -0.531218
-0.386893 2.883890 0.437122
0.580475 1.481734 -0.240134
-0.384638 2.654720 0.291857
-0.420215 2.677831 0.223420
0.240589 1.346548 -0.548349
0.583375 1.376603 -0.212015
0.888831 1.393812 -0.122043
0.901917 1.458945 -0.508970
0.819602 1.527123 0.090857
0.149171 2.139731 -0.312420
0.651156 2.583480 0.164117
0.553930 2.581252 0.338189
0.668666 2.591783 0.427678
0.839689 2.579984 0.375421
0.706091 2.588638 0.137138
0.760129 2.593813 0.154693
0.899555 2.567263 0.180631
0.896694 2.569537 0.183846
1.038654 2.572639 0.339206
1.043234 2.570427 0.333130
0.221252 2.555019 -1.041222
0.898161 2.579966 0.059763
1.176313 2.598929 0.389577
1.204928 2.571963 -0.008572
1.224374 2.596887 0.100929
1.229591 2.668368 0.149231
1.156328 2.522438 -1.043382
1.288478 2.524804 -0.993140
1.317691 2.681506 -0.514872
1.318893 2.682742 -0.532431
1.327104 2.677333 -0.540403
1.324853 2.713731 -0.501880
1.307426 2.782247 -0.366248
1.358752 2.591190 -0.905507
1.360752 2.630584 -0.923848
1.299986 2.940294 -0.045856
1.391466 2.656504 -1.013533
1.350582 2.710183 -0.830912
1.349556 2.737305 -0.897199
1.349697 2.761416 -0.879280
1.349437 2.761007 -0.878823
1.352236 2.848341 -0.742838
1.355629 2.845968 -0.745966
1.320002 3.034172 -0.322563
1.402346 2.750355 -1.057727
1.354344 2.974705 -0.845892
1.374548 3.004653 -0.647671
1.387252 3.074000 -0.627889
1.335849 3.308948 -0.160609
1.447703 2.927541 -1.050604
1.383840 3.062266 -0.727064
1.383840 3.062266 -0.727064
1.399245 3.128717 -0.703069
0.220979 1.334909 -0.532769
0.842855 1.383243 -0.105187
0.842250 1.412918 0.042365
0.962160 1.496578 -0.562098
0.469627 2.590074 0.327933
0.755761 2.583972 0.069460
1.119083 2.341152 -0.386043
0.907907 2.576996 0.158670
0.078671 2.557972 -1.089437
0.945249 2.565440 -0.059918
0.934912 2.572831 -0.090077
0.943109 2.568688 -0.099028
1.270245 2.576744 -0.276810
0.959414 2.524115 -0.933942
1.064244 2.526488 -0.783888
1.293441 2.531577 -0.853007
1.329242 2.574374 -0.713520
1.352392 2.911952 -0.790117
1.434751 2.855014 -1.030055
1.375858 2.983917 -0.722861
1.439557 2.912251 -1.052121
1.443120 2.913163 -1.034913
1.376090 3.059263 -0.750768
1.392280 3.072130 -0.651494
0.924053 1.603846 -0.011175
0.920709 1.605097 -0.006827
1.314267 2.554368 -0.691863
1.360961 2.573098 -1.009565
1.347678 2.722410 -0.733669
1.349510 2.700711 -0.916685
1.345202 2.892678 -0.901036
1.360303 3.058683 -0.809431
0.907310 1.605858 -0.030504
0.853931 2.521612 -0.947025
1.373992 2.637391 -1.036515
1.239856 3.192167 0.146490
0.400101 1.366827 -0.718903
0.918989 1.464830 -0.494639
1.390904 2.682401 -1.015396
1.128232 2.517561 -0.789516
1.208765 2.629301 0.155857
1.266293 2.637109 -0.174968
0.987313 2.582355 0.097315
0.996399 2.572091 0.310993
0.713217 2.586678 0.148741
0.704988 2.583832 0.155002
0.688588 2.584677 0.362437
0.693604 2.591954 0.378832
0.467929 2.592448 0.220679
0.409662 2.601618 0.338964
0.367847 2.603853 0.223864
0.153917 2.617554 0.371831
-0.006723 2.624201 0.245151
-0.253487 2.625442 0.062183
-0.322937 2.630224 0.003131
-0.396583 2.845074 0.057235
-0.407395 2.896357 -0.157583
-0.467293 2.938511 0.261991
-0.426602 3.085449 -0.161828
-0.423631 3.270217 -0.128023
0.278648 2.144997 0.002779
-0.002834 2.648965 0.421788
0.061777 2.590450 0.305536
1.075346 2.571641 -0.209310
1.024578 2.566409 -0.186514
0.831391 2.582221 0.343010
0.740902 2.585636 0.403574
-0.293187 2.628763 -0.139601
-0.348526 2.680445 -0.439206
-0.352863 2.702142 -0.483600
0.087215 2.662381 0.442986
-0.056813 2.617882 0.310130
-0.157128 2.619282 0.214698
-0.371544 2.657333 -0.188186
-0.382756 2.694323 -0.197041
-0.351034 2.816111 -0.545012
-0.079594 2.668749 0.426949
-0.339057 2.639240 0.124771
-0.395727 2.670929 0.367578
-0.415299 2.815947 -0.000479
-0.360923 3.054789 -0.527084
-0.187963 2.821002 0.411516
-0.423559 3.029665 -0.046422
-0.393056 3.249363 -0.355718
-0.381562 3.390674 -0.659928
0.108469 1.259861 -0.593561
0.935505 2.579781 0.115066
0.688633 2.584395 0.362166
0.534073 2.592063 0.398375
0.129297 2.618295 0.400508
-0.057069 2.624808 0.126867
-0.027659 2.618360 0.328119
-0.220177 2.624486 0.150749
-0.206477 2.629671 0.298777
-0.283324 2.631501 0.284420
-0.304153 2.629984 0.226469
-0.373244 2.645488 0.170458
-0.407051 2.776380 -0.063467
-0.439171 2.879092 0.339246
-0.439362 2.878397 0.339979
0.045227 1.466883 -0.536013
0.611627 2.593436 0.035758
-0.321004 2.631906 0.000405
-0.320702 2.631263 0.040146
0.609310 1.509333 -0.725092
0.790007 1.564343 -0.889856
0.883790 1.610820 0.148359
0.518094 2.028853 -0.298920
0.415119 2.586641 0.331067
0.994857 2.318893 -0.304983
0.650174 2.583899 0.164982
0.692719 2.573509 0.333634
1.114236 2.578365 0.425650
0.963738 2.570974 -0.094415
1.075581 2.567866 0.197965
0.322170 2.567741 -1.159238
1.227474 2.594853 0.044429
1.332034 2.597879 -0.731224
1.330390 2.613051 -0.676510
1.313505 2.609628 -0.505724
1.313505 2.609628 -0.505724
1.323444 2.759829 -0.480663
1.327735 2.756824 -0.485090
1.343601 2.847985 -0.517207
1.336046 2.883169 -0.490702
1.393871 3.086535 -0.696105
1.397478 3.144235 -0.677314
0.429977 2.599730 0.387504
0.891246 2.575168 0.217019
0.987562 2.575080 0.063275
1.106033 2.560189 -0.057203
1.281662 2.589822 -0.337669
1.184041 2.532507 -0.667317
1.312653 2.546151 -0.788264
1.316178 2.604921 -0.550894
1.373685 2.990117 -0.554439
1.384231 3.091532 -0.736871
0.090211 1.238933 -0.709284
1.340928 3.055007 -0.864117
0.060130 1.214013 -0.692375
0.204859 1.320998 -0.664538
0.818961 1.569559 -0.161539
0.975038 1.503517 -0.441396
0.933727 1.627516 -0.137970
0.881002 1.474696 -0.611075
1.048292 2.521964 -0.906730
1.081433 2.518691 -0.875326
1.065756 2.520147 -1.020040
-0.272010 2.615263 -0.937302
0.084365 2.563215 -0.971585
1.124970 2.526130 -1.039979
-0.206958 2.593776 -0.885232
0.131902 2.550467 -1.145906
-0.250641 2.636446 -1.117412
-0.136478 1.480683 -0.590247
-0.110589 1.476319 -0.561081
0.365973 2.134365 -0.097749
1.098070 2.560955 -0.194676
0.204062 2.545731 -1.043759
1.019230 2.569717 -0.018011
0.983564 2.564913 -0.213889
0.972657 2.559178 -0.205560
0.928110 2.572057 -0.139074
0.929625 2.572841 -0.140631
1.044256 2.570645 0.334896
0.825145 2.580896 0.154808
0.879993 2.577007 -0.061447
0.709266 2.584276 0.052887
0.658429 2.586120 -0.024583
0.768237 2.582817 0.162258
-0.308545 2.623493 -0.554725
0.258259 2.620096 0.444361
0.227792 2.613225 0.392717
0.177160 2.619204 0.415526
-0.053195 2.620144 0.306490
-0.101858 2.619281 0.169085
-0.156544 2.629580 0.339157
-0.220152 2.668838 0.409875
-0.280710 2.629654 0.308078
-0.407497 2.662958 0.146935
-0.356648 2.884947 -0.444116
-0.160582 2.833835 0.420333
-0.401076 2.882524 0.070243
-0.103857 2.961878 0.446286
-0.187546 2.969268 0.408186
-0.444201 2.850307 0.402982
-0.153770 3.028113 0.424695
-0.427452 3.108214 -0.058733
0.200287 1.389744 -0.591637
0.762466 1.496134 0.239711
0.051946 2.555585 -0.968909
0.364791 2.592323 0.289786
-0.320347 2.630307 -0.164118
-0.173315 2.619123 0.031703
0.092870 2.651428 0.443743
-0.450241 2.915443 0.368651
-0.041374 2.394233 -0.329881
-0.214663 3.002056 0.376664
0.222512 2.111371 -0.336188
0.318699 1.584802 -0.211446
0.803073 2.588873 -0.091146
0.717451 2.587241 0.230784
0.599305 2.591025 0.275497
0.387042 2.597549 0.315123
0.424117 2.601870 0.198914
-0.177187 2.604784 -0.503966
-0.370338 2.694510 -0.310384
-0.370338 2.694510 -0.310384
-0.370911 2.905660 -0.554669
-0.359056 2.916990 -0.648881
-0.345373 3.033158 -0.519761
-0.429668 2.982813 -0.061447
-0.453568 2.913396 0.406340
0.474663 1.537084 0.009232
-0.388120 2.655916 0.163802
-0.404249 2.774314 0.127994
-0.453159 2.846077 0.279805
-0.429386 3.133755 -0.054645
0.392135 1.355949 -0.430581
0.241172 1.550171 -0.429819
0.308462 1.379128 -0.198952
-0.231445 2.615800 -0.082440
-0.096706 2.938107 0.439469
-0.086053 1.445308 -0.730745
-0.071942 1.470928 -0.798654
-0.124413 1.502794 -0.573237
-0.086818 1.507416 -0.777653
0.411259 1.603824 -0.084376
0.895903 2.328714 -0.228731
1.094449 2.559985 -0.191224
1.022560 2.564882 -0.228041
1.066278 2.569083 0.017324
0.925097 2.573144 0.023397
1.011024 2.562747 -0.119085
1.002981 2.557991 -0.169430
0.907990 2.575016 -0.163025
0.914806 2.569492 -0.215459
1.026767 2.575965 0.418891
0.916546 2.574685 0.260354
0.884756 2.575400 0.331201
0.858654 2.581215 0.106930
0.774036 2.585573 0.157475
0.716127 2.587156 0.046729
0.690968 2.589615 -0.015216
0.573272 2.587421 0.341701
0.360994 2.594397 0.165884
0.207668 2.617340 0.322196
-0.351273 2.637227 -0.187102
-0.256498 2.622337 0.144883
-0.379482 2.644912 -0.037847
0.030345 2.689033 0.443135
0.016812 2.679798 0.441308
-0.284406 2.633145 0.350378
-0.296362 2.635052 0.243719
-0.016530 2.765285 0.444100
-0.194345 2.680214 0.422806
-0.251875 2.652578 0.399208
-0.283706 2.677933 0.401908
-0.283706 2.677933 0.401908
-0.294759 2.650974 0.367706
-0.316767 2.671454 0.390363
-0.405819 2.665592 0.314733
-0.426532 2.682544 0.224164
-0.413891 2.858782 -0.121207
-0.360159 2.988978 -0.615421
-0.364077 3.006095 -0.581858
-0.091200 2.814398 0.433676
-0.091510 2.813807 0.434356
-0.189927 2.767657 0.412104
-0.178445 2.805449 0.416500
-0.370646 3.053653 -0.555610
0.007411 2.871325 0.445315
-0.071672 2.876812 0.443237
-0.153507 2.872226 0.427526
-0.218951 2.834276 0.402907
-0.229920 2.833321 0.396156
-0.270007 2.848572 0.372585
-0.301590 2.788513 0.372879
-0.285941 2.826663 0.363097
-0.417143 2.963777 -0.016035
-0.103749 2.961832 0.446004
-0.160275 2.885438 0.418281
-0.190492 2.887352 0.411451
-0.428427 2.985547 -0.046952
-0.381661 3.232357 -0.571794
-0.385746 3.272978 -0.640363
-0.438139 3.100757 -0.066735
-0.097352 3.057825 0.444320
-0.380328 2.944458 0.438996
-0.430306 3.287652 -0.117462
-0.066369 1.477420 -0.778234
0.660983 2.050289 -0.302506
0.254548 2.135031 -0.029248
1.049014 2.573305 0.264458
0.829962 2.578097 0.254760
0.749947 2.583488 0.116524
0.749350 2.582008 0.076324
0.906256 2.578626 0.334327
0.816250 2.575467 0.327471
0.776487 2.589190 0.393816
0.567595 2.584725 0.279848
0.253493 2.606673 0.344462
-0.045460 2.685124 0.443246
-0.040918 2.687982 0.438622
-0.312214 2.640659 0.306163
-0.409194 2.660513 0.191750
-0.176130 2.691871 0.419924
-0.222575 2.701383 0.413746
-0.223211 2.701270 0.414457
-0.397524 2.665541 0.286551
-0.187921 2.820907 0.411710
-0.365634 2.775057 0.391832
-0.096779 2.938666 0.439869
-0.168875 2.941700 0.423870
-0.168875 2.941700 0.423870
-0.451652 2.821417 0.365511
-0.455774 2.843160 0.277738
-0.176924 3.013163 0.408722
-0.205782 2.965364 0.381389
-0.244010 2.971342 0.359916
-0.417437 2.906779 0.444907
-0.437041 3.269400 -0.200331
0.428889 1.383824 -0.539635
0.466768 1.376066 -0.095110
0.390769 1.592194 -0.086129
-0.127261 2.385765 -0.292522
0.316022 2.606181 0.424301
0.173524 2.610689 0.374941
-0.289987 2.627477 0.293193
-0.289987 2.627477 0.293193
-0.315317 2.642994 0.350472
-0.408857 2.840373 0.040376
0.208622 1.365973 -0.671245
-0.097487 1.470368 -0.818604
0.520852 1.504952 0.058587
0.425881 1.521043 0.141936
-0.283360 2.577447 -0.188003
-0.179575 2.648798 0.145398
-0.378680 2.705082 -0.244420
-0.427359 2.984449 -0.065985
0.594509 1.331913 0.150880
0.594509 1.331913 0.150880
0.313297 1.584751 -0.206788
0.753247 2.044527 -0.329220
1.000235 2.565356 -0.068148
0.899581 2.583658 -0.137410
0.769770 2.577931 0.389679
0.822421 2.582675 0.032768
0.798062 2.579460 0.073753
0.798062 2.579460 0.073753
0.761992 2.594550 -0.052907
0.453488 2.606992 0.301752
0.380240 2.595559 0.320264
0.389017 2.587529 0.206422
0.335280 2.590927 0.210026
0.282691 2.597733 0.316463
-0.277518 2.623208 0.007506
0.002653 2.675056 0.437413
-0.331370 2.639487 0.251727
-0.411111 2.680063 0.123409
-0.416614 2.709067 0.121165
-0.236750 2.693041 0.408182
-0.433399 2.708135 0.246647
-0.425985 2.739430 0.194873
-0.407129 2.873297 -0.005595
-0.407129 2.873297 -0.005595
-0.447099 2.824517 0.362215
-0.432987 2.955056 -0.015114
-0.432987 2.955056 -0.015114
-0.360080 3.127141 -0.525142
-0.457804 2.885170 0.390438
-0.111634 3.135962 0.440892
0.171232 1.312221 -0.618575
0.620390 1.319208 0.096091
-0.091717 1.493970 -0.735836
-0.059502 1.507555 -0.811464
0.234200 2.063501 -0.205817
0.783134 2.582307 0.338790
0.763285 2.585828 0.065075
0.415312 2.593818 0.374513
-0.170511 2.620081 0.071186
0.064958 2.654218 0.442746
0.051368 2.630877 0.315456
-0.132994 2.697031 0.429848
-0.262233 2.635601 0.347592
-0.262233 2.635601 0.347592
-0.418818 2.912057 -0.014339
-0.211370 3.004794 0.373871
-0.422611 2.870869 0.420598
-0.416655 3.050612 -0.158900
0.063998 1.217049 -0.691202
0.128193 2.647983 0.433498
0.258237 1.346113 -0.512562
0.636913 1.416008 0.183595
0.741150 2.097415 -0.314501
0.550638 1.317733 -0.012857
0.710819 2.034968 -0.358156
-0.050140 2.629113 0.236350
-0.296807 2.677960 0.393894
-0.448975 2.906631 0.356274
-0.355420 3.025245 -0.505035
-0.367373 3.046045 -0.536626
-0.412547 2.795906 0.016991
-0.115362 1.463410 -0.559089
0.655659 2.083674 -0.307112
0.386708 2.136551 -0.079202
0.885774 2.333994 -0.272236
0.975491 2.566182 -0.084193
1.088385 2.559836 -0.276141
0.946741 2.566661 -0.137637
0.914479 2.561433 -0.189219
0.946085 2.574041 -0.222064
1.091441 2.566670 0.057515
1.001968 2.568662 0.182286
1.086120 2.582201 0.412250
1.013004 2.568979 0.345032
0.854246 2.572142 0.276857
0.815409 2.576101 0.327257
0.566265 2.590737 0.013790
0.552138 2.594629 0.404758
0.556717 2.584319 0.200063
-0.091170 2.618461 0.097961
-0.337017 2.632560 -0.164110
-0.335640 2.634110 -0.166229
0.027369 2.624249 0.388863
-0.372891 2.652832 -0.091032
-0.379048 2.701379 -0.242782
-0.097015 2.628095 0.345896
-0.153235 2.632914 0.386101
-0.378334 2.648142 0.204706
-0.078313 2.708234 0.444458
-0.378111 2.655404 0.313023
-0.422172 2.700898 0.165061
-0.422037 2.740433 0.044754
-0.358658 2.938212 -0.477862
-0.207274 2.747993 0.409691
-0.339292 2.716311 0.386498
-0.414754 2.792435 0.016739
-0.419129 2.812949 0.004170
-0.420505 2.859425 0.009409
-0.028965 2.869670 0.445702
-0.159899 2.834349 0.419579
-0.199622 2.779568 0.413333
-0.423653 2.938388 -0.098728
-0.416766 2.992686 -0.176475
-0.153496 2.871959 0.427756
-0.272579 2.845952 0.376492
-0.427772 3.108478 -0.058410
-0.113399 3.082387 0.440613
-0.121330 3.148966 0.432373
1.032607 2.572295 0.370397
0.814583 2.578912 0.203365
0.509319 2.593940 0.037317
0.780173 2.583756 0.433015
0.360062 2.596399 0.365652
-0.057001 2.627270 0.119906
-0.369082 2.637343 -0.052096
-0.365867 2.638802 0.107023
-0.407158 2.662479 0.188115
-0.322763 2.790453 0.374187
-0.179303 2.867724 0.409915
-0.369867 2.803330 0.406710
-0.148323 2.948674 0.423088
-0.243717 3.004071 0.338321
-0.447103 2.881494 0.361868
0.261667 1.424165 -0.511618
-0.025148 1.437414 -0.483863
-0.015928 1.433210 -0.858869
-0.024431 1.461185 -0.495859
0.584693 1.510956 0.088887
-0.062938 2.377913 -0.338137
0.062885 2.625473 0.345707
-0.408485 2.665388 0.271267
-0.410425 2.663309 0.273671
-0.116544 1.433339 -0.620033
0.264066 2.116299 -0.054550
-0.454111 2.837717 0.376175
0.509659 1.523464 0.143625
0.463916 1.591784 0.126122
0.350578 2.145379 -0.081574
-0.088988 2.198700 -0.323896
-0.085571 1.439111 -0.612747
0.760227 1.392953 0.154605
-0.094626 1.449681 -0.556458
0.888375 1.467274 -0.347809
0.834413 1.583352 0.093049
1.165544 2.553798 -0.224186
1.042465 2.566214 0.017490
1.016527 2.572744 0.270151
0.559605 2.597446 0.219825
0.486654 2.595440 0.161548
0.435374 2.606311 0.160840
0.334764 2.606740 0.385774
-0.151833 2.620031 0.134663
-0.173780 2.621025 -0.004900
-0.286775 2.626202 -0.121827
-0.355055 2.628524 -0.041060
-0.021484 2.620134 0.320449
-0.027878 2.624140 0.395759
-0.129734 2.619342 0.335895
-0.152676 2.623033 0.272850
-0.203389 2.624149 0.217930
-0.182219 2.625822 0.277732
-0.227144 2.631378 0.278466
-0.375880 2.644985 0.125330
-0.384286 2.649608 0.106098
-0.384286 2.649608 0.106098
-0.090824 2.653830 0.418434
-0.078392 2.671963 0.426028
-0.161870 2.626331 0.342010
-0.200534 2.632395 0.359180
-0.222012 2.635594 0.331645
-0.251136 2.625042 0.286324
-0.246710 2.630767 0.279561
-0.293630 2.632821 0.335416
-0.425267 2.679547 0.206483
-0.418335 2.717427 0.057258
-0.425521 2.709015 0.107480
-0.426472 2.708048 0.109254
-0.417788 2.745285 0.035981
-0.052194 2.790367 0.443402
-0.345106 2.734578 0.386403
-0.369447 3.109802 -0.566020
-0.359857 3.151927 -0.507970
-0.098061 2.869152 0.445809
-0.212593 2.859598 0.393811
-0.248129 2.863019 0.382933
-0.239915 2.871263 0.370512
-0.309227 2.830498 0.364187
-0.380758 2.765260 0.391409
-0.245950 2.909660 0.368864
-0.251275 2.939231 0.351761
-0.245134 2.945789 0.343027
-0.370386 2.882096 0.408887
-0.394264 2.860911 0.427313
-0.375991 3.333857 -0.582138
-0.375991 3.333857 -0.582138
-0.383929 2.906661 0.435383
-0.465211 3.002302 0.432224
-0.436517 3.277986 -0.086661
-0.436517 3.277986 -0.086661
-0.056863 1.450041 -0.595381
0.719429 2.077069 -0.326280
-0.091416 2.176029 -0.345882
-0.260274 2.472251 -0.198902
0.628419 2.584528 0.311128
0.320965 2.601154 0.162983
0.320965 2.601154 0.162983
0.279473 2.617408 0.437738
-0.283009 2.632433 0.283231
-0.172596 2.729935 0.428464
-0.172596 2.729935 0.428464
-0.160054 2.803389 0.422771
-0.245589 2.862183 0.361326
-0.208944 2.888227 0.410828
-0.224441 2.952445 0.366446
-0.224441 2.952445 0.366446
-0.219830 2.986396 0.370871
-0.230870 2.996089 0.353636
0.261584 1.402167 -0.519116
0.264113 1.424216 -0.515707
0.496432 1.548527 -0.009439
0.858253 1.599920 0.097664
0.286937 2.130620 -0.050441
0.022460 2.628976 0.337918
-0.412110 2.927263 -0.224832
0.197808 1.448489 -0.468711
0.770779 1.506633 0.161341
-0.088766 2.157977 -0.331363
0.709845 2.098012 -0.361301
0.083568 2.602288 0.371776
-0.270083 2.814846 0.380690
0.322986 1.350832 -0.200977
0.178803 1.359239 -0.686366
0.041222 1.390341 -0.806059
0.947613 1.710634 0.113169
0.144522 2.131896 -0.187392
0.984757 2.562315 -0.317995
1.092421 2.554497 -0.109103
1.065597 2.579656 0.139377
0.686524 2.593707 -0.032712
1.007774 2.565642 0.350654
1.017434 2.573042 0.269369
0.331191 2.596738 0.279679
0.295616 2.602720 0.330717
-0.253173 2.985301 -1.094397
-0.029382 2.622780 0.397981
-0.152754 2.622810 0.273772
-0.267895 2.624816 0.138767
-0.361038 2.952542 -0.678816
-0.400173 2.653274 0.173688
-0.415157 2.849028 -0.150454
-0.396227 2.868633 -0.259568
-0.177096 2.826185 0.418719
-0.420283 2.960412 -0.031538
-0.177843 2.927008 0.416098
-0.177843 2.927008 0.416098
