ply
format ascii 1.0
element vertex 1724
property float x
property float y
property float z
end_header
2.276435 8.243985 2.303096
0.900533 1.432102 0.021079
6.802558 8.119269 3.902450
-0.147558 2.595396 -0.799487
8.216535 8.256623 7.910766
-7.767570 8.900730 10.845915
-5.373102 8.463143 1.744812
-0.259536 2.632867 -1.101015
0.060699 2.563035 0.286869
-4.852327 8.716189 8.379630
-7.672616 8.466067 0.594489
1.973424 8.323713 3.723181
0.015182 2.593903 0.250995
9.969510 2.055647 0.250687
7.010604 4.373784 -7.562853
8.613464 8.095927 4.314101
6.197046 6.307770 -7.050162
-5.198407 8.747289 8.409924
-0.270608 2.730720 -1.215769
2.117239 8.272222 2.765222
5.108883 8.083381 2.193458
2.168779 8.449378 6.628815
-0.215867 2.607700 -1.194931
4.989343 8.425983 9.849754
1.272779 2.770934 -0.023370
-7.001507 8.719756 6.655726
-2.192865 8.748279 9.969704
-0.753934 8.505813 6.124016
7.475816 7.803831 9.638476
1.276415 2.723427 -0.137751
7.884839 8.054156 3.174255
0.554322 2.116090 -0.468342
8.987977 3.069882 -4.827085
3.390170 8.101676 0.174106
2.189541 8.539541 9.122855
-7.102299 8.691137 6.472116
1.602398 8.345185 4.366453
0.678883 2.580219 0.222105
7.886339 8.055460 3.175088
1.106308 2.395770 -0.494512
8.630278 4.107746 -5.041489
3.558791 8.151107 0.643470
6.932075 6.721310 9.689116
1.328492 2.940658 -0.344896
3.187700 8.372494 6.176304
0.495653 1.334433 -0.425232
-7.208794 8.717071 6.452156
1.244341 2.576178 -0.090744
7.146327 7.585641 9.658425
2.021727 8.281967 3.297312
0.772482 2.082307 -0.342537
0.879314 2.519163 -1.036211
5.443361 3.070705 -7.786511
-7.501999 8.705773 5.753444
0.608213 2.565200 -1.122738
1.180983 2.533178 -0.672325
-12.010182 7.702427 5.400094
3.640126 8.289951 4.472483
4.403019 8.306728 4.809056
3.516809 7.943580 -4.661744
-7.936416 8.679365 5.675183
1.051400 2.561707 0.129647
1.802291 8.392779 5.064488
-0.366454 2.645249 0.098912
8.010078 7.764250 -2.016596
0.795100 2.345335 -0.161487
-2.855948 8.803957 11.090045
0.880894 2.570916 0.335602
-1.415212 8.412623 4.030277
1.258067 2.637031 -0.097390
6.410355 8.121970 3.534716
4.792962 3.425058 -8.123208
4.802038 8.245537 4.740062
-4.013372 8.747428 9.588454
0.619081 2.579734 0.215151
6.242722 7.946595 -1.557365
-1.373077 8.460103 4.124175
1.296646 2.633361 -0.328781
1.751631 8.346105 3.958915
-4.415689 8.791613 9.971469
0.619081 2.579734 0.215151
-0.222380 2.576512 -0.139256
0.900273 2.579703 0.104735
8.003773 8.023286 2.817287
-0.243112 2.431091 -0.193447
0.648557 1.472466 -0.609834
8.798550 7.991469 2.821302
0.405414 1.588342 -0.101684
-4.415685 8.793544 9.965217
0.016161 2.571856 -0.844353
3.729681 8.325109 5.026009
4.327372 8.169339 2.660197
-0.382721 2.652510 0.186138
8.105179 8.016866 2.854513
7.433602 8.065793 3.370819
-2.121843 8.524509 4.490163
1.300594 2.585038 -0.502871
2.347586 8.337972 4.712236
1.260889 2.530796 -0.724000
1.324335 2.592746 -0.594348
5.218204 8.216173 4.827967
0.720594 1.425156 -0.536624
4.210626 8.319605 5.666990
-5.415468 8.754073 8.551252
-5.097140 8.797645 10.890453
-0.152674 2.596622 -0.795584
2.745342 8.330559 4.884823
1.121458 2.571491 0.154471
-5.422028 4.371171 4.295288
0.334175 2.598153 0.234276
4.024843 8.196821 2.653027
-0.368867 2.653682 0.263354
6.899057 8.117640 3.590877
3.106441 8.285888 4.080973
1.659670 8.352688 4.295117
4.396551 8.304126 5.988631
0.797754 1.398816 0.042501
-5.562700 8.741337 8.363718
-6.036442 8.533027 9.562197
-5.785744 4.707547 5.882481
0.279879 2.128346 -0.056604
4.116899 8.212894 2.819954
7.933825 8.033027 2.993296
-5.731296 4.438699 5.310358
0.144686 1.399119 -0.681030
7.967251 8.069078 3.226833
-0.336479 2.649538 -0.504476
-1.449006 8.464104 4.521046
2.091195 8.335457 4.391244
0.799787 1.354279 -0.601940
-0.064503 2.565281 -1.150895
5.629711 8.187144 4.050972
4.782296 5.421932 -7.751353
-7.969517 8.705507 6.183454
4.920637 8.248630 5.422152
5.170365 4.924888 -7.527119
-1.838151 8.826159 12.368904
-6.070628 8.925574 12.842284
0.937646 1.530900 -0.656369
3.216558 8.265473 3.522574
0.938229 2.524050 -0.938928
4.792433 8.255530 5.446159
6.453063 4.988901 -7.142648
-1.834762 8.820982 12.359145
-6.068948 8.923573 12.837701
4.662401 8.183711 3.131844
-0.389590 2.775415 -0.253821
4.021345 8.396444 7.313204
-0.241038 2.900885 0.377777
-4.148769 8.787893 10.327869
0.402072 1.710955 -0.761801
0.561981 1.339130 0.059949
4.348488 8.410404 7.557611
0.869021 2.319656 -0.702320
-11.670616 6.298654 5.604492
-2.130673 8.590834 7.016602
-0.374936 8.488183 5.813975
-11.601386 7.272714 -0.917055
2.503626 8.299756 3.740781
0.629419 1.337953 -0.316947
4.121859 8.389436 7.552086
0.945488 2.574188 -0.102841
-13.123481 5.818796 0.401145
-2.375224 8.613294 6.880128
-1.305191 8.543497 6.175775
1.188192 2.636178 0.464963
11.769464 5.978053 -1.519268
0.218491 1.506231 -0.834273
-0.473434 3.138250 0.210133
0.038919 8.451925 5.888904
1.069390 2.568003 0.035729
7.348490 7.798796 9.831307
0.263367 1.322671 -0.847595
-11.683081 6.761716 -0.614214
-4.052349 4.734386 3.790547
-11.696949 5.688484 5.530119
-2.590599 8.606421 6.929026
-0.129494 8.485797 6.117974
0.672537 2.535411 -1.089063
0.366964 1.506364 -0.587638
-0.230063 2.591262 -0.104636
-4.618810 4.614653 4.715225
-3.245470 3.802078 8.761282
-4.706756 8.485949 2.504997
6.524202 8.239143 6.267860
-0.826621 8.461936 4.334132
-0.305614 2.638164 -0.706527
0.776893 2.581971 0.417014
-0.339338 2.647887 -0.463088
0.017460 8.559245 7.472536
-4.633116 4.576470 4.752506
-4.478762 4.630685 4.031207
1.044603 2.334896 -0.349474
7.795792 8.142252 5.668610
0.044379 8.512480 6.547859
-0.380619 8.556477 7.566174
5.532572 8.295346 6.774991
2.979636 4.265997 -9.714691
0.829689 2.098847 -0.403501
9.494381 6.096784 -0.973038
0.434936 1.594101 0.117231
5.367616 8.319796 7.245487
0.085783 2.851487 0.463066
0.264460 2.056255 -0.589997
4.864538 8.352231 7.985362
-0.354125 2.795263 0.373611
-0.108923 2.310103 -0.292897
0.924641 2.522878 -1.064185
6.129137 8.096822 2.963563
-0.275174 2.622820 0.112556
1.338547 3.182503 -0.284080
12.097851 7.730719 0.031675
5.654288 6.767267 -7.161153
-1.442418 8.582455 6.947646
1.019524 7.768221 6.467074
0.978110 1.675552 0.080539
3.133005 8.302872 4.163059
0.595814 1.366552 -0.408370
-0.840646 8.506078 6.205708
-1.691086 8.601051 7.233872
-0.570022 8.604074 7.961117
-13.062451 3.571807 3.693294
3.092105 8.291607 4.425044
7.425886 8.115303 4.297464
0.197559 1.470634 -0.837290
0.994468 2.332033 -0.447654
-2.586270 8.627001 7.461510
-0.247767 8.590582 8.324124
-0.235204 3.125638 -1.106910
3.308570 8.344045 5.473422
13.061686 6.412868 -0.789278
-0.371268 3.277793 -0.596460
-1.208046 8.584422 7.049604
3.981864 8.236170 3.855127
-3.872322 8.411735 1.752702
7.406772 8.136741 4.671307
-4.477382 4.778099 4.660203
7.028670 7.606401 9.697106
6.922313 8.170302 5.780994
0.255134 2.639555 0.455179
-0.021405 2.323606 -0.333024
-1.924682 8.650496 8.149819
0.424755 1.479996 -0.225505
-2.791032 8.623812 7.505038
7.575366 8.221380 6.777786
0.799017 1.514722 -0.640004
0.901618 1.531573 -0.743668
3.185843 8.221112 2.218536
0.660310 1.301492 0.030172
-0.422716 3.144190 -0.210823
-3.460686 8.476324 3.192167
0.807272 2.847942 0.507238
0.245989 1.343575 -0.853535
-1.355657 8.556551 6.564830
4.934578 8.219396 4.129250
9.132892 8.327495 8.937793
8.055064 8.119673 4.670275
-1.828028 8.533681 6.335930
1.149171 8.299837 2.851882
0.693565 1.321745 -0.528305
-2.526150 8.657146 7.909738
6.950751 7.344172 9.780341
-5.534944 8.756182 9.774306
13.176461 7.692328 2.194925
9.853100 5.731707 1.740894
8.351176 8.127729 5.073320
0.535813 2.587923 0.260766
-0.221766 2.421554 -0.227096
-1.356392 8.630473 7.012649
0.934650 8.364701 3.400764
5.641109 3.368441 -7.889708
3.881822 8.263719 3.892403
0.847738 2.500843 -0.937198
0.425045 1.384079 -0.537362
3.698680 8.286693 4.472314
0.847594 2.501683 -0.935952
0.524544 2.565880 -1.149326
6.135332 8.173607 4.011200
1.347533 2.792107 -0.814983
1.015190 8.327252 3.514321
3.604722 8.325769 4.993205
-5.169721 8.367044 4.198540
0.277578 1.308652 -0.499150
-1.845436 8.829114 13.034395
9.221724 8.055413 4.259546
0.928192 2.577981 0.244868
0.622280 1.352837 0.172197
0.689298 2.036921 -0.331550
1.725777 8.281391 2.781000
1.050494 2.575251 0.177469
-1.388918 8.610318 8.094241
-1.865938 8.478402 4.091462
1.399810 3.194156 -0.705118
0.412078 2.108218 -0.509403
8.967527 8.075370 4.502785
-0.388143 2.654647 0.037319
0.616050 1.313417 0.024197
0.861949 1.530816 -0.699662
-0.926278 8.493888 5.777838
6.679303 6.988884 9.949167
1.407050 2.707006 -1.008059
1.496796 8.312106 2.888964
0.562711 2.590134 0.063327
-1.389991 8.604465 8.085504
-1.866341 8.478850 4.091968
1.469802 3.074874 -1.051672
-1.048437 8.513654 5.783636
0.049533 5.854326 8.070709
-5.777147 8.600433 9.768686
7.384175 8.287380 8.410343
0.999765 2.572450 0.181669
1.190516 2.513801 -1.008070
1.099617 2.327338 -0.400427
1.214027 2.523334 -0.758480
0.898513 1.464259 -0.455222
8.262413 8.249422 7.689621
0.891818 2.569450 -0.048676
0.971113 2.525204 -0.820881
-11.627482 7.255721 5.897271
-2.581379 8.577831 6.261330
-1.200434 7.993642 7.888376
-6.924748 8.862322 10.713282
1.779298 8.309752 3.310163
0.570212 1.359121 -0.449649
3.343852 8.273793 4.199069
-13.387314 2.243055 4.003349
7.364999 8.326563 8.857599
0.896546 2.569017 -0.093551
-0.014202 2.561999 -1.151392
1.662715 8.311067 3.268784
0.527217 1.361995 -0.190185
9.475311 6.130042 -0.432412
1.261877 2.539676 -0.562844
-11.702128 5.663116 5.264574
6.301360 4.891417 -6.652021
3.545473 8.305317 5.690437
12.759878 7.734651 0.887829
0.913571 2.571637 -0.223156
0.111277 2.564818 -0.905667
-13.907889 5.434908 1.963787
-0.568509 8.618036 8.394355
3.871349 8.280462 4.833239
1.380580 3.135891 -0.754133
0.348104 8.743062 12.363568
1.109856 2.513787 -0.931401
-7.392470 8.659911 5.100809
6.798334 8.273347 7.101531
-0.297169 2.630809 -0.089042
3.336806 8.300765 4.390620
-0.401302 2.871288 0.183667
-3.141564 8.476587 3.779282
1.505697 8.332757 3.675427
0.359299 1.500069 -0.314786
-1.526490 8.672175 8.783634
-1.466638 8.527123 5.487616
1.394272 3.138175 -0.570286
0.595730 2.093965 -0.424152
1.366319 2.661077 -0.883001
-2.151279 8.534107 5.688064
1.353707 3.083128 -0.828134
9.335119 8.286714 10.395406
-2.915653 7.733992 -8.566448
0.880403 1.426406 -0.496517
-10.777863 8.665027 3.237796
1.906197 8.293317 3.253296
0.683797 2.111205 -0.308178
9.098196 8.100482 5.420530
-2.379894 8.537814 6.136542
1.357847 2.826364 -0.747251
-4.626051 8.378789 0.592338
-7.126906 8.873183 10.059722
3.920903 8.308635 5.123962
-0.366266 2.875852 -0.427426
10.121802 8.297149 10.658389
0.671771 2.127186 -0.523953
0.124243 1.265337 -0.676167
9.140818 8.091634 5.488582
0.037081 8.434282 5.277333
1.346345 2.726119 -0.754603
-0.244359 2.630677 0.013083
-0.491942 8.488702 5.701063
1.118963 2.566509 0.027069
-4.844624 8.686499 7.305592
0.218719 1.442454 -0.837167
1.395792 2.780009 -1.075667
0.266044 1.563774 -0.786664
1.572319 8.323114 3.857397
0.470374 1.466170 -0.181722
-0.477778 8.623649 8.782111
-1.875618 8.500018 6.053794
1.267858 2.758773 -0.132031
0.813153 1.559624 -0.840246
-0.598347 8.575290 6.633451
7.339554 8.097969 4.518218
0.032263 1.471255 -0.694923
1.317393 2.536462 -0.860289
-0.752946 8.626648 8.604830
5.664387 8.138057 3.199409
1.314397 2.635447 -0.531160
-3.009101 8.438198 2.867203
0.895539 2.897151 0.504628
9.122358 8.163446 6.693621
1.285054 2.524079 -0.898747
-13.443808 7.095094 4.583718
7.381506 8.096048 3.935342
-1.300066 8.654573 8.785059
3.487647 8.250692 3.499857
1.325062 2.618934 -0.613049
0.275077 1.493907 -0.888444
-2.978786 7.277550 -8.010768
1.140113 2.524688 -0.767487
-7.578893 8.941681 11.583863
1.082456 8.310483 2.904747
5.287957 6.393474 -7.749427
1.244751 2.522882 -0.969143
-13.111989 5.822636 0.882362
-2.571484 8.630229 6.892649
6.771387 7.041963 11.597108
1.316484 2.525197 -0.979228
-1.482323 8.651975 8.875894
5.681996 8.148306 3.427016
1.324115 2.601541 -0.611067
1.829942 8.302326 3.322734
-3.480145 6.634074 -9.458597
1.005270 2.516101 -1.007488
-13.104055 5.821076 0.880681
-1.717862 8.697408 9.353003
-0.830787 8.486730 6.182268
-1.128200 8.521009 6.031848
-1.919295 8.695925 9.344946
-1.317237 8.543006 6.409963
-11.511899 6.907311 -1.006644
0.747925 1.591510 -0.897816
0.749517 1.593372 -0.439973
1.262032 2.540132 -0.562172
-4.704211 7.710104 12.738014
7.673685 8.136288 4.859667
0.276799 1.293083 -0.605611
-1.957288 8.692286 9.410102
-1.316999 8.536182 6.400679
1.113184 2.569447 0.295347
5.474101 8.275191 6.306399
-4.695807 8.439020 2.336557
6.429722 8.065191 2.625168
1.192552 2.514606 -1.008404
0.883898 2.585029 0.385431
-2.674378 8.768715 9.711206
5.354170 8.188703 3.685466
9.278891 6.550889 -0.670317
3.013934 4.134043 -9.584681
3.162502 8.330599 5.440979
6.018763 5.242044 -7.390012
1.090549 2.523656 -0.766245
1.264031 2.527192 -0.869292
8.250480 8.158871 6.246003
0.443658 8.467845 6.062308
5.768115 8.089658 9.101736
0.060398 1.444158 -0.594905
-6.226260 8.456254 2.405038
0.989584 1.487483 -0.650730
7.431345 7.641601 -4.129427
4.169283 8.318462 5.692596
7.857414 8.196743 6.230878
-0.032919 8.493281 6.035160
0.332494 1.338011 -0.283000
0.458835 1.386638 -0.628325
-6.260764 8.474766 2.363531
7.178209 8.210503 6.336161
-0.197729 8.467397 6.037122
0.576891 2.584347 0.231518
-1.477172 8.564876 6.707611
-4.144052 4.701895 7.252022
5.457506 8.161046 3.770459
1.252918 2.538999 -0.587209
-7.580861 8.503180 0.669754
-2.519117 8.742472 9.904134
-2.023614 8.592743 6.812782
-13.086747 5.708004 0.463371
-7.991025 8.712705 6.278277
0.292217 2.546351 -1.013677
0.904657 2.575214 -0.039700
9.090037 8.205895 6.770568
-0.297557 8.530089 6.527068
9.101948 8.215654 6.782411
-0.686717 8.523058 6.840645
0.611475 1.497975 -0.710231
-0.055367 2.584464 -0.840286
0.572100 2.590445 0.428624
8.410233 8.117626 6.348194
-1.322761 8.603486 7.010809
-13.333583 2.515634 3.265685
6.786420 8.248455 6.480751
3.348069 8.353765 5.720553
5.401439 3.249694 -7.818442
-0.305846 2.641139 0.305072
1.027832 2.560826 -0.109083
7.102517 8.237540 6.897046
5.471451 3.921032 -9.959958
-0.055367 2.584464 -0.840286
-5.858945 8.542534 9.781764
5.262126 8.231806 4.892895
5.143369 3.040699 -7.692137
1.170927 2.403466 -0.423016
0.580513 2.119229 -0.485816
0.293013 2.372980 0.119022
3.440717 8.361378 5.894961
8.050752 3.238013 -5.393430
3.470152 8.288226 4.617816
6.063374 2.833158 -7.252170
-11.624169 8.478731 -0.941227
8.198548 8.201026 6.617414
-13.389082 2.180740 4.103497
7.841662 8.070086 3.181959
3.411100 8.345708 5.957167
7.929978 3.209438 -5.425145
6.356795 7.965599 1.121651
7.509768 6.020189 10.423845
3.551769 8.343353 5.139607
-0.280607 2.618434 -0.765126
-6.505851 8.861078 11.496284
1.187163 8.369143 5.558156
0.541207 1.289288 0.003657
-1.753387 8.566468 6.795148
-2.042281 8.541127 5.857276
1.264629 2.568418 -0.335751
1.195383 8.384943 5.570975
-0.908229 8.691280 9.784107
0.599345 8.506039 6.805898
1.349983 3.463876 -0.228247
7.159240 8.125619 4.280563
1.093918 2.581045 0.366254
-10.804180 8.686456 4.067590
1.105494 2.391571 -0.500667
0.663827 3.049953 0.484779
-0.963782 8.708937 10.114085
0.393679 8.511290 6.697998
1.419575 3.297354 -0.596178
2.761546 8.359939 5.527650
-0.917678 8.723464 10.589237
-0.807163 8.606286 7.809168
1.339230 3.277833 -0.351965
1.335430 8.328174 3.434995
0.929824 2.605520 0.529131
9.148717 8.114680 6.623384
0.182526 2.613528 0.398553
13.284487 6.784079 -0.298466
0.622193 2.588682 0.340649
-4.608537 4.639229 4.845156
0.258148 2.549279 -1.137339
0.218832 2.599102 0.282666
2.646887 8.223349 1.748769
-1.501398 8.752139 10.019220
-3.120309 8.443212 2.746656
6.560965 8.296738 10.774145
-1.566843 8.764427 11.480695
0.559397 8.578591 8.161669
1.317945 3.135498 -0.140285
-5.133465 8.434256 1.262110
-7.689025 8.563462 15.228677
9.268361 8.338969 9.961859
8.903811 8.222834 8.215970
0.117818 8.560417 8.120890
1.313315 3.087275 -0.245060
10.131945 5.665425 1.631460
6.054023 7.925489 -1.439269
0.828877 2.804263 0.510174
1.230725 2.570749 -0.108065
1.350039 2.769793 -0.716921
7.348093 8.317668 8.749922
0.083477 8.591544 8.452982
1.324730 3.060776 -0.326259
13.118758 7.830327 4.066516
1.039562 2.576776 0.320002
3.382149 8.420906 7.242352
1.319430 3.042540 -0.341153
0.924105 2.520600 -0.921436
0.467853 2.118600 -0.476447
0.127017 8.449920 5.672395
0.735434 2.048190 -0.351689
0.100104 8.580341 8.522275
1.369270 2.969922 -0.591767
1.491622 8.361776 4.052261
0.924110 2.520522 -0.921883
-13.410158 7.814884 4.039296
12.826639 7.154999 3.124072
1.157741 2.576699 0.339786
4.385320 8.187059 2.615153
-0.435329 2.826603 0.234593
1.817284 8.414010 4.111230
0.202993 8.591218 8.643659
1.352824 2.959886 -0.518485
0.919132 2.525408 -0.856753
10.237525 5.888622 3.048180
11.415809 6.811580 -0.553647
-5.098715 8.039993 -7.795217
0.565866 2.156315 -0.542202
-3.749134 8.496684 3.630850
4.643905 8.157767 2.816279
-0.427629 2.839724 0.226101
-0.414836 7.998656 10.488345
1.920238 8.517644 8.491271
1.366425 2.932322 -0.729262
7.545867 6.487740 9.953347
0.440199 2.596054 0.168572
-0.409757 8.741871 12.120883
0.361071 8.610953 8.917451
1.341476 2.887546 -0.866970
0.517488 2.589192 0.225406
0.753296 1.472363 -0.507894
0.935516 2.155503 -0.322578
1.345276 2.850427 -0.533952
6.951170 8.315021 7.952181
-3.175432 8.663707 7.648435
1.631811 8.363468 4.758758
-0.555291 8.759641 11.866618
7.299680 8.228818 6.645712
-4.864542 8.732816 9.704622
10.063961 5.110158 -3.726252
0.878147 2.518895 -1.036021
8.981957 1.549099 -4.907571
0.790393 8.354727 3.441308
0.498456 2.027585 -0.255021
-5.316336 6.816685 6.048177
1.360816 2.588620 -0.908627
7.246177 8.226320 6.745433
13.389123 7.174695 5.677810
0.793351 2.576912 0.275216
0.259162 8.374977 4.211963
0.383321 1.590376 -0.020600
-4.777979 8.885636 11.405167
-1.156333 8.485701 4.536924
8.296468 8.057050 3.734716
0.117201 1.455146 -0.576117
4.240314 8.264087 4.593479
-0.415734 2.812167 -0.016468
7.138183 7.977798 0.239602
-1.012315 8.828120 12.046181
7.156983 8.244622 6.775798
1.314129 3.046694 -0.085897
13.229770 7.357838 5.860638
0.869730 8.349341 3.577521
-4.777979 8.885636 11.405167
1.333014 2.782703 -0.475947
-1.235338 8.774767 11.951158
2.769157 8.506280 8.599188
1.312429 2.966419 -0.295255
8.100384 6.369561 9.652641
0.838330 2.574870 0.272121
-1.908468 8.872202 12.674458
7.773570 8.239151 7.095732
1.303459 2.957921 -0.244311
1.118356 2.519426 -0.755922
-6.041584 8.564152 9.455130
-0.541989 4.010614 0.270244
0.984342 2.572161 0.222692
4.055127 8.232230 3.508164
0.698145 7.913441 -6.770564
7.238590 8.258358 7.077993
1.304630 2.957201 -0.245337
1.140848 8.300335 2.663827
0.782507 1.395150 0.063170
1.298893 2.588359 -0.461758
3.055795 8.405743 6.127045
0.223064 8.770356 12.496302
7.928471 8.322536 9.212164
1.335743 2.688724 -0.699786
-0.174003 2.300025 -0.126827
1.194814 2.571278 0.133516
1.194606 2.554392 -0.230284
0.543205 1.437667 -0.561402
1.211391 8.313094 2.895417
0.687333 2.588700 0.036254
0.464443 1.405613 -0.473513
1.189481 2.613384 0.353678
3.339203 8.244746 3.104544
5.161609 6.556600 -8.718043
5.896324 8.017068 -0.280508
-0.834274 8.809672 12.809698
6.249470 8.386304 10.265476
1.355303 2.661045 -0.905170
7.517804 8.065223 3.085671
1.020889 2.574902 0.075929
1.247359 2.593295 -0.033643
-11.741682 6.254234 5.581707
1.211719 8.313961 3.191401
0.844909 2.582525 0.028454
4.494071 8.336928 6.045216
0.175450 2.122582 -0.236389
-14.540563 8.896408 3.389962
0.902462 8.506959 7.215787
3.817497 8.597880 11.765224
7.139805 7.850881 9.687198
1.302339 2.794556 -0.291205
1.049498 2.572708 0.034018
-0.987550 8.490899 5.348418
0.799539 8.364816 3.697319
1.195163 2.572077 0.045211
4.052500 8.168087 2.125011
4.694962 8.467196 9.826151
-0.388262 2.884119 0.103043
1.158194 2.528600 -0.657530
-2.553229 8.688026 8.702061
4.927922 8.303282 6.224025
6.471350 8.448667 12.067225
6.469625 8.055968 10.678080
1.021547 2.569480 0.118107
-1.293902 8.529616 5.670742
0.459730 8.304571 4.282313
0.799529 2.578547 -0.092818
3.970350 8.182332 2.438126
-0.341259 2.755175 0.381345
4.809205 8.342241 6.616977
-0.010073 1.467767 -0.562355
0.199632 2.127345 -0.322254
-0.133484 2.804959 0.434039
1.990781 8.293932 2.904015
-6.097092 8.485839 2.066212
-9.263801 8.438611 -0.927435
3.683329 8.274180 3.962860
7.166369 4.188736 -7.409427
1.853912 8.311237 3.115078
-0.258523 2.973035 0.350037
-4.496853 8.780761 9.126016
-5.151720 8.453520 1.447230
-1.660543 8.491847 6.634206
4.189023 8.357551 7.314941
0.730560 8.742215 13.117897
7.992817 7.170097 9.377799
1.288138 2.689542 -0.241943
1.048706 2.582267 0.486950
0.545452 2.119217 -0.603794
0.326171 1.348227 -0.209057
0.767634 1.566511 -0.921732
-0.176404 2.691665 0.420334
2.064047 8.286015 2.945337
1.078140 2.744693 0.588441
0.769521 1.569541 -0.778415
0.705939 2.585621 0.260719
3.715662 8.328322 5.193610
3.646818 8.271648 4.127066
1.909081 8.307018 3.186812
0.411755 2.647404 0.520165
0.748356 1.558098 -0.760005
0.696846 2.579363 0.289090
4.669462 8.578002 12.772457
8.078706 6.819463 9.669963
1.313452 2.632104 -0.563664
0.613397 1.512584 -0.760298
5.869124 8.198121 4.884519
-0.324883 8.761333 12.931447
-1.458857 8.430595 3.406074
0.015508 1.405252 -0.726115
1.139575 2.536707 -0.742521
-13.118976 7.119099 1.189591
11.763347 6.815667 2.314690
0.880016 1.379122 -0.718080
0.669309 2.635533 0.521167
2.714928 8.309807 4.475171
4.826342 7.922537 -4.747955
0.547944 1.396720 -0.449812
8.573353 8.245340 7.842287
0.454920 1.522240 0.144049
3.800482 8.643332 12.996046
-2.576347 8.444430 3.713819
0.845912 8.378253 4.306977
8.631065 6.375096 -5.366240
0.831689 1.358536 0.040358
1.030300 2.693046 0.550974
8.270806 7.617219 -5.967761
-2.883205 8.585929 5.918853
6.264049 8.158511 3.878765
-5.256964 8.337465 -1.811556
10.061808 4.642537 1.225577
3.585466 8.638264 13.166680
-1.407895 8.438695 3.628289
1.239407 2.648920 0.088827
14.050151 7.485151 6.397481
-1.697329 8.444639 3.869135
0.820190 2.546928 -1.096268
7.109587 4.512522 5.897404
-1.597900 8.463397 4.249306
5.590419 8.154281 3.321255
3.625909 8.240000 3.314410
8.047635 6.123121 10.527960
-1.515059 8.456519 4.509651
0.951679 2.569389 -0.038904
13.731044 7.596385 -0.238349
0.487128 1.530200 -0.161992
-5.883166 8.877269 12.766472
-1.187861 8.414138 3.441441
-5.241180 8.449751 1.471774
-7.613236 8.910703 11.389998
-12.987808 8.235233 0.415203
4.680719 8.436030 9.056141
8.754183 8.004958 3.385245
5.274402 8.394101 7.631247
-2.319710 8.593479 6.457310
7.866633 7.610600 -4.278482
2.971214 8.656336 12.873193
0.847323 1.698506 -0.424815
8.037533 6.351520 10.286232
3.379235 8.358995 5.871080
0.227812 1.352257 -0.776085
-2.319171 8.578184 6.580155
3.609118 8.262024 3.720606
7.749789 8.234916 6.981781
3.005183 8.336530 6.058153
-5.350210 4.623608 4.746738
1.256375 8.374114 4.434067
4.405639 8.238479 3.993245
-0.306897 2.630274 0.182920
0.319639 1.484951 -0.319681
0.084971 1.488913 -0.642807
1.160174 2.481716 -0.436510
-11.575582 7.225888 -0.969274
-2.542411 8.722775 9.268982
-2.236707 8.609535 6.803568
0.830440 2.580678 0.169017
0.327125 1.491230 -0.315306
-5.123088 8.473397 2.568312
-5.286223 7.659313 12.747459
5.016684 8.435716 9.382602
5.111733 4.240525 -8.022048
4.409443 8.249293 4.185703
-0.290512 2.629658 0.119027
4.258126 8.256794 4.139845
8.571535 8.286966 9.414754
0.097308 2.930026 0.472780
0.378436 2.108201 -0.500402
-11.626250 7.647939 5.448958
4.080839 8.265946 4.331224
6.647148 8.032875 1.658550
-6.937083 8.325432 4.186431
-11.599780 7.636624 5.440070
-2.259882 8.689304 8.686268
0.273886 1.425265 -0.755542
6.751342 8.282357 7.177105
0.405976 2.726190 0.496665
10.610962 2.396323 8.170077
4.660681 8.393132 7.808096
1.277072 3.079212 0.050032
3.322150 8.341407 5.647275
-13.207561 3.202105 1.364411
1.220585 8.365084 4.393458
0.127255 1.262175 -0.723067
0.414307 2.340343 -0.619427
5.442407 8.358064 7.703818
-3.520277 8.437488 2.508805
0.215153 1.387698 -0.825268
-0.325213 2.635280 -0.439366
4.688866 8.432277 8.493937
8.768811 7.972360 2.668544
0.382182 8.458774 5.792909
-10.871710 5.251182 5.525582
1.240948 2.519384 -1.014776
0.058775 8.456442 5.736495
0.131812 1.267443 -0.696495
1.275950 2.864339 -0.101490
1.981991 8.321130 3.859517
9.198690 8.263238 8.654057
1.819177 8.319916 3.649133
-5.125772 8.420179 1.254436
-13.223765 7.000802 1.912368
8.489490 7.979629 9.904208
1.037810 2.571718 0.369090
6.443020 8.191132 5.447122
0.269890 1.453548 -0.700793
0.731147 2.588725 0.315133
0.179117 1.740356 -0.292382
11.938581 8.110205 8.811943
5.900337 8.169699 4.049505
-13.257148 4.368899 0.457332
1.089491 4.197099 -0.762862
-5.973635 8.289591 -2.143928
1.428632 8.365392 4.750418
0.002885 1.480723 -0.785500
0.881969 1.422769 -0.061868
0.948508 2.587726 0.513873
0.115908 2.398489 0.152250
3.440014 8.298761 4.224254
-13.440726 4.169568 0.342879
1.354841 8.393144 4.813078
0.901448 1.395306 0.077848
6.731218 7.833550 -1.883770
3.452885 8.154425 1.403276
3.623834 8.350481 5.846954
-0.045329 2.768898 0.441436
-0.375235 3.225374 -0.434751
-8.800543 8.122396 -7.659575
0.888830 1.441904 0.108337
7.050342 5.759247 11.152193
-4.659821 8.580102 5.540373
6.417666 6.661405 10.658287
-0.689653 8.514905 6.579418
-13.324711 2.471709 4.337889
2.516771 8.301035 3.489797
1.181483 2.530547 -0.673686
0.932679 2.332018 -0.611015
13.376764 6.315113 3.291552
0.893094 2.577201 0.204667
-6.707704 8.668762 6.648524
0.574897 2.304649 -0.624557
-0.598857 8.552991 6.771204
-11.382718 8.485630 -1.258815
2.428112 8.281597 3.452004
6.642555 6.808558 10.239462
10.549541 1.439323 1.424049
0.722306 8.473140 6.433280
-13.102805 4.223206 -0.002632
9.852188 1.289905 0.391830
0.709049 8.480945 6.503703
-13.214738 4.189005 0.169609
-2.395339 8.715008 8.937594
1.289085 2.571307 -0.418994
1.467644 8.384829 5.361680
0.549744 2.112118 -0.139436
3.763831 8.345849 6.163609
-0.407748 2.662858 0.147303
0.601340 8.357090 3.561195
0.392120 2.600105 0.054983
17.354939 6.867425 11.396317
-7.741937 8.598766 7.487442
-1.325809 8.464638 4.551704
4.106372 8.421043 8.380059
-8.553653 1.443326 6.140705
-0.058429 2.585993 -0.841559
5.773278 3.958322 -7.355645
2.726955 8.303918 4.865418
-0.498946 3.966294 0.481910
4.065056 8.556863 8.890881
-0.851108 8.580870 7.113107
1.351192 3.387534 -0.132643
0.835561 2.520600 -1.038324
-6.297595 8.402339 -0.757291
0.280546 2.714293 0.480783
-2.892082 8.576678 5.458105
-2.803288 8.372107 2.706498
7.985855 8.068866 3.720207
1.245060 2.567803 -0.226687
-13.090317 7.448887 0.905233
1.433557 8.296175 2.763449
5.873207 8.372219 7.697940
-0.322695 2.635932 0.142223
-6.553431 4.792231 3.752604
4.065056 8.556863 8.890881
-0.862543 8.555534 7.090106
1.532141 8.327489 4.602652
-4.851588 8.387823 0.665864
1.244903 2.568514 -0.226155
-13.090676 7.448942 0.904984
5.326671 8.377936 7.856671
4.053041 8.367122 6.302102
-12.081236 6.992336 -0.179124
2.278133 8.404457 5.611568
-0.228992 2.791430 -1.298299
-1.548426 8.617662 7.484408
1.371445 3.019948 -0.746927
1.482208 8.378996 4.852950
0.524736 2.032199 -0.301772
-4.905321 8.392473 0.741219
-1.696718 8.529952 6.681121
0.303686 1.586725 -0.766101
0.188041 2.562359 -0.946399
-0.194125 2.610444 -0.630015
0.645369 1.394022 0.078451
3.615129 8.236793 2.764933
0.102088 1.434762 -0.701605
6.938769 8.230377 6.311896
-1.249798 8.408925 3.351501
0.549557 8.453278 5.275242
4.331152 8.200608 3.163518
14.029797 7.548123 -0.655510
-0.410508 3.213009 -0.057454
2.549333 8.526968 8.919049
-1.139535 8.389569 3.036381
0.360557 8.450438 5.670984
1.817448 8.370050 4.331179
1.698712 8.443943 6.432247
1.350258 2.716255 -0.809661
1.588413 8.363078 4.916050
0.392601 1.386298 -0.114326
-5.066263 8.425136 1.295301
0.545864 2.548979 -1.124474
0.795738 1.401529 -0.526856
2.404352 8.318191 4.001594
4.449694 5.368931 -7.802890
0.808903 8.376456 3.903223
0.703887 2.582906 -0.127000
1.689209 8.455103 6.515614
1.580698 8.391242 5.105252
0.395483 1.469199 -0.238750
-0.124240 2.578479 -1.002975
-6.291434 8.401710 0.519186
2.403098 8.317686 3.999807
1.022081 2.574239 0.078039
6.766062 8.458893 9.220092
1.688948 8.456235 6.516129
1.336657 2.741896 -0.623989
-4.742134 8.467133 1.653013
2.721569 8.195328 1.387449
3.463631 8.337234 6.409471
-0.023386 2.620883 0.138212
0.577954 2.127773 -0.552709
1.231365 3.072843 0.171510
2.066113 8.668651 12.391634
6.410320 8.143559 10.976375
1.326823 2.651570 -0.619560
0.459730 8.304571 4.282313
0.924220 2.576964 -0.079335
-8.230225 8.430449 -0.266911
0.757121 8.540353 6.897094
1.335463 2.626084 -0.716113
-0.381501 2.663947 -0.124582
0.237191 1.557195 -0.576841
-5.652532 8.444072 1.607098
-7.362061 8.465222 -0.018832
0.222682 1.322136 -0.738851
-0.908106 8.586478 7.566964
1.273565 2.548671 -0.431470
-6.167773 8.478950 2.332692
-2.196884 8.754775 9.979627
0.580840 1.495518 -0.727845
-5.185092 8.833336 13.240705
11.062447 3.150479 7.819220
6.904796 8.148105 4.742330
1.114705 2.512911 -0.912006
8.527897 8.253412 7.728246
-2.205266 7.570031 -6.192259
-12.658760 8.664591 1.794139
4.466632 8.125864 1.753056
5.901837 3.430972 -8.249545
7.948123 6.000854 11.067482
-2.055231 8.371566 1.194892
5.495739 2.859982 8.675454
0.861839 2.556293 -1.095217
-0.281728 3.130956 -1.209654
1.243740 2.510281 -0.925036
8.709671 2.824990 -0.503605
-0.530186 8.523441 6.575118
1.295979 2.808770 -0.270629
10.603714 2.333159 7.846667
2.084283 8.450054 6.765972
-11.602475 6.640970 -0.670822
2.515529 8.342010 4.636442
-0.416010 3.015228 -0.135750
1.243740 2.510281 -0.925036
0.685221 2.583157 0.236656
3.872697 8.145274 1.766718
8.709671 2.824990 -0.503605
-2.393106 8.492987 4.361903
1.337268 2.689709 -0.663849
-0.047654 2.574499 -0.902059
-0.475818 3.658654 0.507664
1.844701 8.515482 7.197316
0.930272 2.578581 0.120591
5.842261 8.281551 6.723889
0.654778 2.084799 -0.305518
-5.019917 8.185530 9.728405
-11.587919 5.698573 -0.136743
-1.710259 8.336285 1.238867
-4.677492 8.616693 5.958816
0.562677 2.184862 -0.770894
1.326936 2.579266 -0.611629
0.516560 8.533196 7.903154
-13.175277 3.024014 1.793062
6.721319 7.773211 -2.350862
-0.957585 8.483967 5.440361
0.175651 1.504674 -0.751638
0.910849 8.493680 6.766254
0.222158 8.547815 8.124830
0.906498 1.609820 -0.160329
-0.307524 2.784599 -1.241346
1.246737 2.527390 -0.803014
0.925330 2.572482 0.023419
-4.248626 4.731885 4.825282
-0.697092 8.552342 6.554929
-0.417173 8.395781 3.523277
0.212241 1.357784 -0.686416
1.018050 8.500280 6.905552
-0.774689 8.579076 8.398891
-13.156945 2.551513 4.661586
-0.428483 2.707699 0.355008
4.897419 8.166132 2.142956
6.217316 8.352150 7.994616
-0.208653 8.604746 7.812229
1.033063 2.416061 -0.324820
1.273100 2.523788 -0.914049
-0.258841 2.750167 -1.123644
4.080638 8.411840 7.634738
1.060232 2.513501 -0.930805
0.933743 1.533285 -0.668934
2.608711 8.386734 5.872507
1.020077 8.259185 2.851275
0.244078 1.297838 -0.513842
0.375877 1.609739 -0.666403
3.139636 8.238899 2.648214
-0.353357 3.028850 -0.448576
3.627718 8.418644 7.548217
1.373259 2.996655 -0.719068
-5.931402 8.812728 9.627394
-12.987582 8.299137 0.493662
1.002088 8.325663 3.057665
0.371634 1.376814 -0.717767
-5.202459 8.570802 4.553778
10.039210 2.554391 -4.520271
0.558550 1.340318 -0.279047
-0.271212 2.657548 -1.036518
0.489392 8.614659 9.016447
1.331434 3.023163 -0.398721
0.254386 8.423651 4.569914
1.178277 2.490575 -0.422363
-0.046922 8.441462 4.962697
-8.157014 1.456429 6.397666
1.998832 8.314099 3.178625
-0.090661 1.430277 -0.649745
-0.271349 2.657115 -1.036584
0.490544 8.605262 9.002956
1.363234 2.995082 -0.511541
3.875087 8.232260 3.799577
0.564901 2.595091 0.425444
-0.274584 2.733494 -0.979025
-1.582979 8.675471 10.112619
1.370611 2.968067 -0.592836
1.228559 8.308336 2.937036
0.057735 1.426231 -0.751942
-6.653395 8.013695 3.258087
-10.846937 8.513727 -0.808051
-0.382773 2.891493 -0.280323
7.757478 8.213139 6.516550
1.366750 2.936756 -0.609505
7.575592 8.199272 6.500555
1.367236 2.936296 -0.609731
0.121175 2.558191 -1.010819
3.746070 8.283743 4.595053
-0.406464 2.942768 0.009140
7.511359 8.213971 6.522766
1.369267 2.933401 -0.648672
4.818946 8.389611 9.318361
7.246574 8.215381 6.509922
4.892573 8.198849 9.516701
7.357512 8.244767 6.807096
1.352022 2.892536 -0.794163
6.610061 8.048102 3.914753
6.460612 8.212427 5.379604
1.102816 2.575223 0.195786
3.219218 8.455218 7.370371
2.454516 8.524350 8.945768
1.344374 2.905620 -0.481605
4.140365 8.324477 5.841207
0.441335 2.601862 0.458108
1.256145 2.520283 -0.831522
-12.648750 5.677500 0.003801
6.719873 8.356873 9.302489
1.924585 8.530533 8.921139
1.362844 2.876731 -0.657550
1.049955 2.519942 -0.865377
-4.795685 8.411755 0.721015
9.301510 6.170401 -0.644594
1.886796 8.541366 8.975026
1.303816 2.913937 -0.265107
4.654632 8.248522 5.362278
3.098526 7.965726 -3.582242
-0.130223 2.582570 -1.192997
-2.675538 8.616724 7.492282
-4.768698 8.452001 2.216967
12.068957 8.114489 8.756450
7.112738 8.276354 7.176984
1.348098 2.806773 -0.612335
1.020505 2.522031 -0.824826
-2.689482 8.789816 10.734235
4.108633 8.256441 4.551396
0.830975 2.575006 0.254688
6.131964 5.216001 4.634970
7.143420 8.266544 7.256378
1.353572 2.803274 -0.703190
1.998076 8.281582 2.823871
0.854690 1.550833 -0.772529
-0.138359 8.496976 5.982776
0.659467 1.540311 -0.710161
1.317159 3.035321 -0.217703
-0.402046 3.034445 0.011885
7.389786 8.254526 7.256303
1.347749 2.766315 -0.770816
-0.049117 1.464937 -0.824576
4.049643 8.447291 8.590416
1.293445 2.921370 -0.125222
0.080499 2.567112 -0.964368
-4.062605 4.682845 6.221596
12.209371 4.344057 14.949545
7.890755 8.247844 7.589925
1.312146 2.777443 -0.406488
1.377309 8.339036 3.696162
0.962990 1.625680 -0.011211
-2.846337 8.435093 2.935480
0.141635 1.407395 -0.681402
0.436070 8.467636 5.927454
-13.392103 2.635066 4.098557
0.022332 1.237034 -0.711521
7.251555 8.278582 7.806268
1.282219 2.778198 -0.126176
2.045370 8.341029 4.370925
-3.942104 8.721973 9.072332
-4.703485 8.411367 1.195008
1.364783 2.614683 -0.931935
5.281204 2.182609 8.809607
4.473135 8.462830 9.037101
1.325800 2.672440 -0.609654
5.789527 8.197332 5.194209
-0.327045 2.635444 -0.440315
-0.082375 2.589838 -0.820160
-0.381289 3.606806 -0.727556
5.140497 0.825581 -8.257835
-5.474899 8.437733 0.865043
-0.150269 8.586944 8.356444
-3.183557 8.424050 2.478611
1.477043 8.355289 3.797130
0.228918 1.396912 -0.526728
-5.501896 8.443198 1.438814
-0.301012 8.528446 5.783314
1.054650 8.406497 5.222502
3.452127 7.784724 -9.417770
9.120592 8.194377 7.647175
8.105861 7.815363 1.623398
13.812664 2.634387 14.088035
3.053226 8.536247 9.505944
1.303836 2.680806 -0.360485
4.502536 8.383498 7.355860
1.245738 2.568512 -0.205076
-1.068262 8.313561 7.514738
3.644269 8.376005 6.275943
1.068855 2.571488 0.034457
0.748093 8.410912 4.699543
4.910739 5.066198 -8.453526
-3.595137 8.430197 2.213407
1.338608 2.733556 -0.625839
13.541019 2.679396 14.160177
3.108044 8.550318 9.608535
1.303836 2.680806 -0.360485
5.200952 7.925834 -2.600143
3.606417 7.916729 -3.876854
-5.085403 8.448135 1.796531
1.346315 2.541748 -0.946980
-0.197574 2.607225 -0.710873
3.272776 7.926607 -3.145507
5.259001 2.074048 8.923523
2.845091 8.510722 9.766910
1.289316 2.673315 -0.291400
9.948788 1.366598 0.660292
0.612436 7.449736 8.698872
1.122990 2.556779 -0.119123
-2.335197 8.627654 7.313473
0.137768 2.140696 -0.197811
-0.337452 2.663449 -0.497391
5.026491 7.251989 -7.940810
11.957415 7.715457 0.261200
2.201749 8.289161 3.034101
-5.021841 8.456086 2.372871
-0.690447 8.478258 5.872096
1.092525 2.511294 -0.953866
1.114831 2.519557 -0.791467
-0.356943 2.726695 -0.389963
0.244574 1.542852 -0.628068
7.901757 6.210712 1.086058
10.617914 1.380074 1.371887
7.550607 8.278848 8.029252
1.242105 2.518949 -0.943383
10.676620 1.353039 1.340872
7.824221 8.306711 8.400349
1.264172 2.689714 -0.066452
7.120369 8.148303 4.421838
6.312239 7.325246 -7.786546
-6.253079 8.494264 2.315930
1.325209 3.225102 -0.131099
0.599558 2.137321 -0.585498
4.491492 8.256521 4.789733
1.142038 2.568211 0.002367
7.711035 8.280676 8.459399
1.280260 2.644177 -0.227632
0.804154 1.398024 -0.558362
-5.051690 8.400625 0.872318
1.912742 7.612766 -8.808499
7.523572 8.289877 8.357879
1.110843 8.470927 5.657014
-5.131878 8.391745 0.923095
0.849328 1.383381 -0.737278
-3.037925 8.622295 6.709253
-2.442897 8.609073 6.680156
0.906437 2.570921 -0.160349
8.843889 8.198879 7.156483
9.833143 2.540407 4.028280
8.551840 8.262934 8.272522
1.148540 2.501132 -0.477351
6.852689 8.170742 5.026473
-1.444155 8.518466 7.777169
5.244437 8.140590 3.005686
7.307621 8.347283 9.284295
6.772728 8.183540 5.119245
0.439340 1.389764 -0.427130
-5.765398 8.220948 3.597660
-7.666708 8.461107 -0.468312
1.443264 8.341451 4.083505
4.072647 6.787493 -8.921095
0.705788 1.391945 -0.476036
1.321871 2.580896 -0.651966
6.656697 8.099152 3.313621
0.695517 1.422439 -0.492979
-1.751167 8.767664 10.855797
10.906192 4.561182 2.991175
5.452156 8.338668 10.166649
-12.903752 4.714729 -0.331354
9.189851 6.543912 -0.391993
-0.316864 2.842818 0.373346
-6.844409 8.699619 6.672762
-1.771061 8.687441 7.591334
4.864094 8.343550 9.926267
8.880275 3.222795 -4.835721
-13.132951 3.249965 0.693972
0.829369 1.569718 -0.761772
-0.292155 2.823569 0.368805
-6.994282 8.708918 6.642065
-4.856958 8.388958 0.668068
-1.402091 8.609608 7.588922
0.509743 3.235165 -1.244000
-1.068509 8.585021 7.462532
1.368069 3.043688 -0.738832
0.123609 1.406045 -0.705885
4.436255 8.148008 2.024945
9.433061 2.540051 -0.706759
9.961032 2.215463 3.521353
6.693727 7.917688 10.197108
-13.239230 2.538001 3.971710
-2.550468 8.699890 8.890421
-7.473402 9.062270 14.425977
3.726691 8.152302 1.770797
-0.434993 2.746194 0.364003
-0.417567 2.773569 0.364468
6.666934 7.932029 10.294805
0.807711 1.491460 0.112778
-3.137680 8.700805 8.491712
-3.438672 4.766883 6.967124
-2.718965 8.504933 4.648781
-0.147607 2.735757 0.422323
6.676119 8.161769 3.847609
0.488035 1.559377 -0.080923
1.119217 2.521757 -0.772152
-2.110663 8.628840 7.201465
0.722494 1.521518 -0.561403
-6.826413 8.427723 0.623820
-0.449204 2.926682 0.314215
0.028792 1.415375 -0.561601
4.469375 8.581766 12.470541
9.738012 7.395252 -4.927166
5.156332 8.477984 11.066049
-2.513591 8.702795 8.958374
0.142068 2.556679 -1.068884
1.243990 2.592746 -0.011266
3.479126 8.177882 1.779117
-0.426462 2.730333 0.166620
0.060297 2.612677 0.101699
1.861663 8.355125 4.585469
0.729552 1.396571 0.070595
0.039432 2.563301 -1.065165
0.546746 2.547892 -1.125544
3.451409 8.185901 1.813050
9.592840 5.673399 -3.945105
5.151437 8.530726 11.794370
0.168235 2.823531 0.456905
0.527455 1.565517 -0.048697
1.027010 2.654437 0.564227
-3.495192 8.715977 8.898162
3.264899 8.184317 1.749989
-0.365485 3.122933 -0.696808
4.763381 8.137193 2.126545
-0.413977 2.861890 -0.125951
4.617315 8.154982 2.269589
-0.389435 2.657761 0.333620
10.150236 7.656190 3.181333
3.967187 8.168358 2.147540
-0.357471 2.644665 0.203604
1.114783 2.513771 -0.554764
0.431142 1.383721 -0.431179
4.528026 8.165651 2.480597
0.379589 1.403190 -0.781621
12.631724 1.082254 -8.719138
1.771853 8.379396 5.315560
0.240796 1.302213 -0.691313
-3.160757 8.691782 8.971072
-0.432192 2.736101 0.239463
-0.230234 2.630454 0.277276
8.760709 8.316657 9.943747
4.518981 8.159552 2.523361
0.648688 1.446753 -0.374059
6.109214 0.973987 -7.290804
1.570552 8.402891 5.500145
0.798799 1.581087 -0.792101
-3.189669 8.716296 8.607678
6.063490 8.169901 2.708407
7.496840 6.889332 9.817251
9.334450 8.050549 6.285681
-4.152608 8.789584 10.336556
-11.716697 5.859034 -0.078334
4.422436 8.190995 2.873823
0.219319 1.451817 -0.567555
4.705405 8.190030 3.473371
-0.147406 2.585554 -1.064743
1.229588 2.562222 -0.229428
0.374603 1.615488 -0.811887
-7.745682 8.462927 0.961396
6.401439 8.242568 6.192063
-0.106171 3.229331 0.440595
0.227508 2.557378 -1.166483
0.995783 2.582348 0.487307
0.622201 1.502981 -0.709602
-7.870797 8.466375 1.236978
-4.436327 8.427058 1.508201
8.284357 2.371876 -5.376088
0.706688 1.445540 -0.186861
-0.191501 3.133026 0.363940
-2.364359 8.847303 12.611981
-0.065237 1.441374 -0.636567
0.913088 1.485324 -0.508703
5.324133 8.296353 6.651993
-0.191501 3.133026 0.363940
4.641329 8.128167 1.498282
9.085580 2.902483 -4.720740
-2.831029 8.852139 12.682236
0.356142 1.463706 -0.333492
-0.069092 1.449380 -0.609413
-7.392090 8.458125 3.559713
5.498807 8.318146 7.010351
-0.049848 3.158433 0.465586
4.808592 8.127322 1.848696
-1.881734 8.411549 2.748309
1.329047 2.536963 -0.917559
7.602676 8.047569 3.371301
0.609881 1.505677 -0.635588
-6.755187 8.633125 6.796066
6.664826 7.752014 -2.736782
-3.802627 8.077954 -5.450447
9.389636 2.914418 -4.646692
-1.525411 8.761117 11.842833
-0.069092 1.449380 -0.609413
-3.560823 8.512054 10.189325
5.379910 8.341949 7.200782
4.800858 8.130759 1.987803
-2.524222 8.504132 4.453041
0.007109 3.227747 0.496967
5.546429 8.102272 2.116795
-1.736698 8.469280 4.037984
0.606253 3.312175 0.459778
4.633811 8.147181 3.996797
-0.354871 2.982665 -0.573542
1.883807 8.501630 7.715703
1.359208 3.104725 -0.803265
3.415332 8.269187 4.207727
4.439036 5.162534 -8.630722
4.239904 8.225181 3.645061
-0.063777 1.449176 -0.685041
-3.158676 8.707892 8.732095
-6.991620 8.843383 10.478742
1.886147 8.504301 7.723195
-8.236803 8.432226 -0.296679
3.423860 8.298213 4.317210
-2.962296 8.157517 -3.304955
5.814130 8.086106 2.015820
5.942306 8.204587 4.444757
1.009583 3.293671 0.699374
-3.604776 8.397242 1.669737
0.050334 2.559200 -1.092408
8.418320 8.067490 3.984222
0.232055 1.428377 -0.539725
0.824210 1.374969 0.017542
0.909499 1.533305 -0.669096
5.814242 8.085138 2.015529
-2.378259 8.529001 4.885990
1.009583 3.293671 0.699374
-3.605695 8.398440 1.670474
0.010667 2.562702 -1.088978
-9.647587 8.041486 -9.406684
3.701270 8.271133 4.194804
0.414350 1.382820 -0.425872
-2.744195 8.808688 10.497222
0.792535 1.541041 -0.753382
-4.720092 8.734156 9.923207
-9.982774 8.760921 5.607226
4.375912 8.462810 9.081537
-0.262859 8.641004 8.708631
1.358424 3.024381 -0.806135
5.936897 8.117716 2.805174
-0.326629 2.917673 -0.739037
-0.413635 2.811897 0.176778
5.311253 8.112595 1.924458
-0.090180 2.572922 -1.007771
-11.571151 7.210165 -0.859561
-3.766520 8.732849 10.464830
2.466479 8.413709 6.587095
0.016946 1.400125 -0.725809
-4.127548 8.812778 10.554650
-7.291632 9.014740 12.789761
-0.010833 1.469928 -0.582352
0.726127 3.019470 0.492538
6.020986 8.218181 5.111288
4.333401 8.195514 3.075430
-0.368441 2.907900 -0.558278
5.856486 8.160235 5.592043
3.919341 8.223014 3.172959
-0.386242 2.818631 -0.250272
0.475510 2.565598 -1.147007
-7.392685 8.622259 4.718546
6.791222 8.057879 2.232983
-1.861727 8.437996 3.374198
-0.232110 2.664183 0.400080
5.928452 8.094105 2.130155
-0.294127 2.640586 -0.833350
-8.120500 8.620200 5.011263
0.917514 2.513515 -0.999993
-4.903957 4.785308 7.775443
7.164867 8.010761 1.914081
-2.482568 8.466466 3.552938
6.741457 8.089022 3.126019
-2.898143 8.451834 3.428933
-0.362337 2.672810 -0.333644
1.073744 2.511837 -0.818611
-6.393201 8.978365 13.534985
2.374134 8.392015 6.465087
6.830437 8.003133 1.272542
-2.929346 8.472464 3.592151
-0.362337 2.672810 -0.333644
6.703205 8.150176 4.630420
-3.081889 8.490447 3.623628
0.018154 2.631849 0.260272
7.503577 8.012488 1.954096
-2.835110 8.361231 1.011958
0.293930 2.549118 -1.011375
-5.227110 8.396335 0.964247
-6.881294 8.438567 0.729548
7.514657 8.026494 2.496134
0.247798 2.608340 0.275422
3.973519 8.258637 4.388476
0.543962 2.592598 0.284522
-3.128927 8.480620 3.855348
0.753867 2.628500 0.542156
0.105952 2.560082 -0.948952
7.897772 8.119168 4.676718
4.342793 8.241119 3.685777
4.212284 5.315205 -8.721737
-7.062326 8.432549 0.517811
-2.370130 8.605819 5.921941
0.941524 1.527226 -0.604407
-2.899104 8.494149 4.016202
4.645325 5.042545 -8.394444
-2.905749 8.500699 4.137152
-6.643219 8.420452 0.692561
6.134401 8.134137 3.029203
-9.696043 5.798789 -2.631426
5.260327 2.372436 8.908696
6.856651 8.295640 7.726013
1.336756 2.687964 -0.640300
4.458674 8.242479 4.720221
0.849858 2.578164 0.113729
1.227080 2.513623 -0.954223
-0.268728 2.624322 0.181143
8.308711 8.151028 6.070856
-2.829087 8.485427 4.165466
-0.434423 3.513522 -0.287199
-4.580382 4.520801 3.995162
0.487036 2.718270 0.499744
1.469316 8.316117 3.083387
0.298856 1.570208 -0.680522
-1.802918 8.578974 7.169156
7.477932 8.170998 5.809018
8.865940 8.004211 3.340035
-2.912590 8.498348 4.213179
0.933775 2.575076 -0.045017
-2.690536 8.494904 4.418923
13.416011 4.613808 -0.853145
0.439917 1.574497 -0.214711
0.351308 2.078830 -0.172649
12.296778 7.863776 2.099731
-1.977049 8.489018 4.533132
5.410619 3.250787 -7.833825
8.752525 8.046354 3.822457
-0.069342 2.769727 0.422292
-7.057672 8.697992 6.628715
0.906474 1.558047 -0.723944
6.806155 8.448352 12.322742
-1.583045 8.389245 2.456192
-2.444491 8.844217 13.592413
13.750520 7.094153 5.815115
-2.289913 8.492688 4.677574
-2.597917 7.684408 14.832716
6.554905 8.257564 6.954409
-2.757533 8.407702 2.488515
5.746653 8.308473 7.380539
12.399540 7.686251 -0.021496
-2.839453 8.490665 4.046990
4.829994 5.102929 -9.758457
0.074611 2.561233 -1.009559
3.118506 5.434974 8.219630
-2.953664 8.481764 4.713378
6.969988 5.770473 10.839237
6.556752 8.258773 6.955728
-2.345391 8.357298 1.545617
5.814914 8.303694 7.447631
3.325598 6.781654 -9.084837
1.690566 8.405650 5.682670
-5.287386 8.489879 2.586782
-6.710813 8.470071 1.773933
0.393144 8.578155 8.332749
5.639125 5.366340 -8.267188
13.822180 7.557867 1.595051
0.799726 2.568351 -0.171004
8.724098 2.768157 2.283868
-1.956825 8.507062 5.139588
-1.429324 8.725188 10.739881
2.449780 8.246279 2.250174
5.720199 8.360048 7.570839
1.010543 2.792392 0.536246
7.839869 6.933953 9.289247
0.945239 1.693366 0.128798
5.379780 4.482581 11.311681
-2.414405 8.529309 5.080989
-0.957082 3.662951 11.261508
7.232461 6.308430 9.750954
-0.445909 2.833665 0.345447
-7.499700 8.713396 5.929752
-0.452197 2.976788 0.311742
9.812165 8.077412 4.738176
1.269878 2.530164 -0.883830
0.909736 1.582775 -0.115055
0.814832 1.564046 -0.759206
-13.067028 7.384246 1.492143
1.695709 8.311866 3.098761
1.283899 2.525892 -0.983873
-0.391193 2.739299 -0.127941
-5.669632 8.622948 4.914315
-0.315424 2.631104 -0.271574
5.909427 6.374692 11.067479
-2.639589 8.545971 5.113131
12.194647 3.931832 15.192908
6.911991 7.698002 -3.747084
-2.527848 8.676912 10.278711
11.791899 5.101145 -1.198587
-3.224414 8.369157 1.561807
4.870105 8.398009 7.786580
0.531314 2.584497 0.250822
5.835416 7.767525 -5.883757
8.656980 8.336107 9.237995
2.465352 8.529181 8.868885
3.422724 7.977674 -3.442384
12.971841 7.765230 1.971470
-2.063648 8.464331 4.290351
3.891366 8.280349 4.377050
0.769745 2.590606 0.457332
0.176493 2.553148 -1.037476
-11.885249 8.289741 -0.282432
-4.553166 8.380786 1.286652
1.182475 2.622139 0.472971
2.628797 8.331713 4.615479
-8.405933 8.390605 -2.185384
-0.150282 2.617364 0.105983
9.805627 8.113458 4.837033
1.116712 2.512298 -0.996175
0.833247 1.510996 -0.630142
4.454228 8.383237 7.665577
0.676372 2.587078 0.201555
4.271091 8.210907 3.938842
0.796350 2.100843 -0.384404
-0.091187 3.073183 0.448964
4.631037 8.397176 7.989378
0.659226 2.589328 0.284238
5.060791 8.285264 6.199486
3.033201 6.371947 8.380984
13.138696 7.775750 2.078226
-2.105456 8.470649 4.332932
5.291810 3.239789 -7.743524
4.971974 8.136435 1.833162
1.845399 8.297279 3.160588
0.132422 2.088920 -0.612477
4.744253 8.333748 6.384455
-5.684463 8.474250 2.307984
-6.977013 8.505252 2.097425
11.768895 5.368737 13.165503
2.838628 8.470525 8.113242
9.951623 3.760975 -9.667054
-2.785015 8.528470 5.354615
-0.002881 3.227665 11.764806
3.010866 8.418013 6.814492
-3.677916 8.412507 1.734027
13.153279 1.978677 8.631554
1.059595 2.528300 -1.059129
1.258634 2.596693 -0.170504
-3.776579 8.698097 9.510845
1.354886 2.812831 -0.592544
8.570361 7.990061 2.680753
-3.324918 8.222385 12.331995
-0.457804 2.885170 0.390438
8.939220 8.139943 6.133020
1.096819 2.570132 0.140288
1.214303 2.525977 -0.755661
0.761262 1.523030 -0.148019
0.746749 1.502881 -0.120768
-13.136639 5.925139 0.558213
5.978236 8.126012 3.052725
0.737114 2.121188 -0.253192
0.864710 7.048423 8.708091
7.965631 6.879819 9.561957
-5.986345 8.487823 2.337118
-3.991118 8.663504 7.603464
0.058721 1.445305 -0.638793
0.801594 1.367997 -0.672885
4.285862 8.419961 8.121186
0.807439 2.620844 0.536826
3.918206 8.388429 6.732745
-0.853088 3.647477 11.599623
0.101543 8.682799 10.474032
-1.733875 8.409182 3.116769
1.347592 3.323399 -0.365382
-5.620331 8.477813 2.165296
1.348200 2.583231 -0.820357
-0.528813 3.627906 0.200200
1.091450 2.559729 -0.110651
8.402597 7.676700 -3.364930
8.025016 8.064140 3.975176
