ply
format ascii 1.0
element vertex 1723
property float x
property float y
property float z
end_header
3.017372 3.193342 6.276222
2.771495 3.316307 6.181224
0.361712 1.815530 1.236217
3.955128 3.083018 4.686775
-0.720067 2.225622 -0.093877
-3.212981 1.045175 5.969656
-3.226226 1.048432 6.012890
-3.776684 4.247918 6.034469
-3.776684 4.247918 6.034469
-3.092345 1.195207 6.092495
0.680084 2.027153 1.245474
0.936874 2.259538 -0.557921
-3.132876 0.942015 6.048058
-0.451818 1.165381 0.344023
1.127442 2.290562 -0.043219
2.108097 1.311871 8.204854
4.049421 2.598924 6.409639
1.044667 2.256985 -0.104035
-0.308803 1.024817 0.256107
-1.118694 2.206194 0.151559
-0.364705 1.723202 0.444132
1.273394 2.025697 -0.544425
5.559665 0.983796 11.465771
-3.080694 0.909418 6.064892
5.451491 1.321429 11.555906
2.133093 1.258774 7.935939
2.385890 1.285351 7.803573
5.548872 1.596720 11.655369
-0.433571 0.676337 0.201483
3.336924 2.027017 15.119930
2.158926 1.460738 7.891101
-0.667327 0.809047 0.772752
-0.620564 0.898590 0.747596
2.993847 1.901033 7.799198
2.993847 1.901033 7.799198
5.783637 2.250148 11.228551
5.876034 2.326997 11.205616
5.904799 2.337965 11.250425
6.079054 2.318800 10.640262
-0.599975 0.955511 0.717484
-0.600031 0.955653 0.717646
0.057698 0.943063 0.574399
5.869650 2.650133 11.395164
0.169528 1.072500 0.781540
2.087282 2.393946 7.966953
5.802516 3.020423 11.220095
5.884157 2.942582 11.042755
2.853450 2.548958 7.849562
2.848006 2.548677 7.840824
5.789962 3.126348 11.188049
5.912585 3.171936 10.890193
3.316289 2.726649 7.422118
1.527011 2.733969 7.271412
-0.100736 1.273893 0.298237
-2.074587 2.950877 6.782198
3.574986 2.975565 5.533490
-0.078460 1.546865 0.407881
3.775058 3.013683 4.974786
-0.776655 1.966378 1.626575
-0.688474 1.985789 1.711897
-0.702526 1.974806 1.575319
0.387334 2.029187 1.741334
3.783724 3.346078 4.967599
-3.298698 3.478802 6.024743
-2.276215 3.876584 6.798366
3.973380 3.369018 4.717925
4.093918 3.432738 4.831771
-1.019200 2.110979 1.480688
-1.303502 2.217229 1.545954
-1.218786 2.185079 1.482116
-1.205369 2.241092 1.446619
-0.716966 1.748274 0.153541
1.820632 2.197908 1.165208
1.821300 2.198299 1.165808
1.920748 2.199910 1.143412
1.905541 2.210627 1.074593
0.363514 1.516319 -0.580449
-0.792665 1.848706 0.034353
-0.647704 1.895686 0.228035
-0.153288 1.991567 0.366334
-1.392281 2.317950 1.010196
-1.412603 2.321413 0.965869
-0.395465 2.023966 0.309106
-2.110660 2.322414 0.877562
-2.057052 2.322308 0.804692
-0.972845 2.028658 0.117934
-0.881016 1.975900 0.066674
-0.880903 1.976070 0.067488
-1.859803 2.329364 0.721749
-1.846201 2.352866 0.533760
-1.076231 2.198897 0.150925
-1.075636 2.197340 0.148645
-0.919934 2.042463 -0.272882
-1.477905 2.374195 0.300027
-1.408819 2.367892 0.243770
-1.341892 2.372981 0.201227
-0.401598 2.180748 -0.198139
-0.082073 2.285621 -0.055948
0.291367 2.151041 -0.371904
-1.475639 2.377842 0.140493
-0.778335 2.078290 -0.473582
0.060421 2.408057 0.025482
0.096176 2.287450 -0.227173
0.874231 2.228256 -0.388087
0.874231 2.228256 -0.388087
-1.425509 2.390997 -0.004899
-1.188409 2.396013 -0.044098
-0.973490 2.402894 -0.082132
-0.973475 2.401520 -0.084103
0.915666 2.256859 -0.429361
0.847176 1.942149 -0.875415
-1.410776 2.403380 -0.039904
-1.201982 2.396744 -0.182861
-0.096437 2.410769 -0.232975
0.933885 2.243435 -0.623300
-1.005260 2.414289 -0.292904
0.390809 2.413644 -0.428519
-0.855790 2.421670 -0.326310
-0.777807 2.426171 -0.373254
-0.099847 2.438733 -0.431600
5.232681 0.958674 11.893945
5.232681 0.958674 11.893945
5.759859 1.011684 11.242450
-3.267683 0.847139 5.924769
-3.267956 0.846844 5.924021
2.263773 1.061936 7.800881
2.326391 1.056859 7.527832
5.476545 1.274102 11.631388
-0.079233 0.690840 0.727942
5.556455 1.391850 11.538575
-3.485168 1.133263 5.706571
6.024926 2.003637 10.877715
6.019340 2.002294 10.865191
-0.640749 0.864139 0.725435
-0.597327 0.874126 0.770353
0.070156 0.896010 0.440324
-0.101158 0.901901 0.405787
-0.113932 0.991199 0.336860
0.027514 1.007025 0.530397
0.023498 1.031787 0.524141
0.023498 1.031787 0.524141
5.864225 3.242065 10.691929
0.159368 1.159355 0.634841
3.322046 2.756314 7.533043
2.785584 2.960431 6.646768
3.031434 3.163228 6.283575
4.249672 2.752714 4.877715
3.349266 3.040245 4.918525
-0.994439 2.013624 1.793986
-0.952123 2.050345 1.688176
-0.646873 1.991518 1.636569
-0.888172 2.081216 1.560391
-0.404598 1.713188 0.415289
-0.800737 1.725880 0.306053
0.285626 1.498775 -0.321098
-1.323035 2.215412 1.578596
-0.803570 1.733491 0.123836
-0.603587 1.800115 0.253474
-0.477651 1.907252 0.689485
0.074399 1.618783 -0.212831
0.074925 1.618615 -0.214269
0.062862 1.542127 -0.303579
1.840749 2.213415 1.071026
-0.722835 1.786752 0.107954
-0.747346 1.824393 0.083874
-1.015731 1.959730 0.126869
-0.710684 1.910412 0.113733
-1.156324 2.096482 0.276304
-1.596442 2.338206 0.622878
-1.924625 2.340954 0.635042
-1.889162 2.351858 0.588548
0.920623 2.182958 -0.121100
-1.719085 2.375658 0.371279
-0.242074 2.120065 -0.133785
0.992608 2.198639 -0.133355
-2.024214 2.771350 0.924170
0.664804 2.152298 -0.391079
0.837865 2.248760 -0.149533
0.838070 2.236673 -0.243515
1.058610 2.202921 -0.336496
-1.560473 2.381450 0.156294
-1.012210 2.381860 0.116493
-0.615834 2.201697 -0.318313
0.323591 2.163253 -0.373660
0.847704 2.217395 -0.395503
-0.372825 2.152982 -0.477963
-0.965284 2.409413 -0.171083
0.889736 2.256340 -0.609885
-1.207405 2.419044 -0.314199
0.133360 2.426698 -0.449892
-3.082826 0.805017 6.073418
-0.093900 0.676456 0.763288
-0.724553 0.787611 0.750154
-0.269499 0.831659 0.233224
-0.332411 0.873017 0.123040
-0.159315 0.909079 0.487985
0.027782 0.960740 0.568061
0.070568 0.918141 0.428448
-0.420188 0.966700 0.163882
0.052694 0.985756 0.524609
-0.411204 1.055042 0.301646
-0.042388 1.160070 0.328427
-0.066925 1.215870 0.410125
1.958351 3.111922 7.390701
-0.234095 1.473901 0.320643
-0.066368 1.516820 0.387498
0.327925 1.932644 1.671274
-0.753644 1.983323 1.772604
1.917653 2.196584 2.045669
-1.024736 2.162110 1.866105
-0.958783 2.073136 1.536486
0.395300 1.505330 -0.291656
-1.468942 2.285539 1.765500
0.059845 1.600799 -0.167659
-0.606996 1.885592 0.317100
-1.221718 2.301695 1.185872
0.104519 1.701546 -0.358559
-1.021742 1.944493 0.165566
-0.989053 2.096845 0.123726
-1.582605 2.374700 0.208992
-0.779484 2.316484 0.010103
-0.732513 2.264302 -0.103168
0.353496 2.168803 -0.379044
-1.485113 2.395070 0.058007
0.945881 2.249921 -0.457118
0.938147 2.237566 -0.586065
-1.232416 2.422996 -0.275017
-3.286534 0.807498 5.896602
5.693079 1.521596 11.197430
5.693079 1.521596 11.197430
-3.141768 1.160858 6.058405
-0.645101 0.816045 0.776529
-0.645039 0.816322 0.777164
-0.239221 0.873133 0.247953
-0.185184 0.905790 0.469848
0.068099 0.943025 0.573158
2.282388 2.129961 7.974619
0.091164 1.165972 0.628516
1.833595 3.100099 7.184460
3.744683 2.491477 4.710864
-0.095059 1.510490 0.373298
0.062993 1.555800 -0.236126
-1.299731 2.235625 1.537262
0.150836 1.497985 -0.428982
0.454211 1.522576 -0.487910
1.342025 2.315988 0.638340
-1.020259 1.994925 0.129584
-0.059247 2.004821 0.015054
-1.075610 2.230820 0.147917
-0.288875 2.139839 -0.207441
0.108185 2.112465 -0.313661
0.004314 2.400644 -0.026163
-0.064031 2.412119 -0.184653
0.308573 2.355536 -0.392269
0.866774 2.262844 -0.562600
0.364455 2.404818 -0.396526
0.821305 2.331213 -0.507991
0.906062 2.282752 -0.621764
-0.406906 0.678282 0.208160
-0.153823 0.737391 0.602637
-0.681283 0.809414 0.772548
-0.740918 0.838483 0.720921
-0.174916 0.828918 0.567142
2.175183 1.953984 7.905786
0.064403 0.974869 0.544563
0.050256 1.024962 0.514587
2.975279 2.767695 6.319243
-0.881111 1.992773 1.691142
-0.829177 2.076599 1.614386
-1.511247 2.270942 1.818366
-1.159102 2.187017 1.483163
-2.186958 2.300029 1.183266
1.390927 2.326629 0.649977
-0.123658 2.055091 0.136901
-1.045766 2.087750 0.118840
-0.650514 2.234334 0.170472
0.011819 2.044012 -0.195854
-1.040843 2.209313 0.133868
0.542297 2.090047 -0.407299
-0.927925 2.264552 -0.174033
0.146907 2.406135 -0.120284
0.214763 2.321553 -0.310323
0.661306 2.285097 -0.407648
0.894734 2.254545 -0.540788
0.985779 2.259314 -0.548264
-0.556694 0.959160 0.742607
0.018826 0.982605 0.547837
0.097887 0.904198 0.419800
-0.061612 0.987140 0.541032
-0.711930 1.922457 1.808862
-0.742265 2.017830 1.555954
-0.745107 1.729140 0.155916
0.148109 1.524075 -0.425276
0.092239 1.680031 -0.333097
-0.656426 1.991875 0.255091
-0.177127 2.018144 0.207915
-0.080245 2.030363 0.136378
-0.728472 2.248051 0.030649
1.092191 1.917273 -0.629752
1.103768 2.231857 -0.306269
0.952922 2.220185 -0.390375
0.185227 2.413718 -0.151160
0.268788 2.426488 -0.420649
-0.043197 0.681802 0.847164
-0.348751 0.832932 0.056175
0.218513 1.038224 0.987815
-0.086782 1.165871 0.398392
-0.449796 1.166973 0.305564
-4.465603 3.603227 10.078195
3.816036 3.171215 4.888570
0.314825 1.484110 -0.379440
0.245634 1.516531 -0.501625
0.435601 1.529443 -0.534016
-1.076160 1.994043 0.187117
1.172794 2.343622 0.379361
-0.592045 2.118863 -0.058292
-0.592045 2.118863 -0.058292
0.682056 2.135112 -0.323441
-0.741414 2.227800 -0.146971
0.993498 2.235833 -0.423676
-0.108643 2.469384 -0.201883
-3.027189 0.839364 6.183131
-3.142164 0.940113 6.095051
-0.405049 0.886523 0.120392
2.295349 2.075679 7.796587
2.911151 2.061475 8.134807
-0.969698 2.067266 1.963954
-0.691232 1.681809 0.343847
0.224312 1.496780 -0.327091
0.514528 1.548725 -0.518368
-0.035554 1.693018 0.513621
-0.559951 1.947391 0.632145
-0.059230 1.754954 0.272542
1.227449 2.123816 0.032592
0.623903 2.142755 -0.412565
-0.309948 1.101350 0.289282
-3.596866 2.738548 5.963645
-0.125170 2.015905 0.243246
1.185296 2.259287 0.135493
-0.083389 0.724371 0.672015
-0.082059 0.730275 0.706233
-1.237646 2.187777 0.819745
-0.199532 2.165566 -0.270402
-0.349417 1.877845 0.403132
-0.756371 1.870515 0.212692
-0.563561 1.966951 0.408498
1.330315 2.050036 -0.035711
0.977956 2.020457 -0.787429
0.673723 1.557847 -0.410958
-0.177574 1.891175 0.321837
-1.463898 2.239054 3.302191
-0.225432 1.261518 0.732979
2.168087 2.549545 8.276155
-0.685786 1.850438 0.140512
3.182362 3.223884 6.141209
3.414216 2.639654 5.996066
-0.500823 2.088941 -0.166950
-0.826678 1.863583 0.038355
-3.041067 0.987429 6.116349
1.619243 1.318714 8.212407
-0.432258 0.700054 0.214925
-3.241646 0.972954 5.945849
-0.369134 0.738108 0.314586
2.267997 1.237541 7.834061
5.560797 1.598429 11.675138
-0.643111 0.852876 0.756691
2.331167 1.472145 7.868069
-0.620538 0.898180 0.747352
2.354974 1.662761 7.853060
6.060575 2.013353 10.711537
-0.405756 0.911298 0.117091
0.036826 1.027259 0.519450
2.355481 1.742734 7.179795
3.027500 1.841911 7.678295
5.444827 2.544640 11.556117
5.661576 2.614484 11.369708
2.510275 2.390662 8.000650
2.966287 2.401800 7.769492
3.135219 2.468435 7.883201
5.906435 2.894265 10.993147
-2.162203 2.193337 6.710080
2.664651 2.518253 7.935268
3.081902 2.543090 7.694918
-1.340869 2.382798 6.930140
2.834991 2.754274 8.012016
3.613340 2.837801 7.433841
4.119448 2.596505 5.156803
0.426432 1.742371 1.187853
3.172064 3.228216 6.252916
4.092685 2.907320 4.671961
-0.635067 1.945628 1.820688
-0.487368 1.957740 1.734296
0.300463 2.009812 1.916605
4.337724 2.945450 4.153294
-0.456096 2.001588 1.767457
-0.135373 1.668031 0.432139
4.299041 3.351746 4.904184
-2.269685 3.542973 6.738836
-0.336385 1.719282 0.361013
-0.136840 1.734364 0.352032
0.384972 1.514605 -0.289065
-0.791895 1.705067 0.249722
0.346846 1.492109 -0.566154
0.465708 1.492237 -0.683358
0.600010 1.526183 -0.613371
-1.303188 2.213908 1.588350
-0.779714 1.737176 0.093931
-0.779637 1.732894 0.082974
-0.687094 1.752694 0.155136
1.928790 2.227572 0.988744
-0.902549 1.783222 0.081969
-0.065762 2.017737 0.468362
-0.800705 1.978561 0.085830
-0.775000 1.986918 0.101645
-0.311386 2.023792 0.243506
0.089473 2.032763 -0.131083
1.271925 2.341481 0.418804
-1.922903 2.321517 0.823616
-1.842879 2.330459 0.698478
-1.843412 2.331607 0.700804
1.236979 2.341947 0.117642
-1.115423 2.188196 0.152015
-0.240521 2.125264 -0.124048
-0.043590 2.101450 -0.257862
0.931612 2.183831 -0.172529
-1.844887 2.353059 0.533768
-1.582083 2.359561 0.392026
-0.887626 2.021695 -0.403123
0.285987 2.148647 -0.346187
0.291928 2.151654 -0.371136
-1.490936 2.364779 0.301203
0.050076 2.397541 0.053446
-0.756786 2.063199 -0.528808
-0.246190 2.081632 -0.575196
0.742492 2.359485 -0.312253
-1.307172 2.391720 -0.039484
-1.306113 2.389208 -0.042390
-1.070377 2.400584 -0.080895
-0.960120 2.400917 -0.107032
0.923279 2.245576 -0.611277
-1.206219 2.403369 -0.173456
-1.160169 2.399728 -0.107364
-1.310370 2.416646 -0.166574
-0.907475 2.419712 -0.329904
-0.907475 2.419712 -0.329904
-0.856782 2.421719 -0.328013
-0.004315 2.443358 -0.365135
-0.003584 2.449063 -0.355944
0.570645 2.461048 -0.456922
0.559724 2.427971 -0.483012
0.514783 2.443295 -0.520051
0.587627 2.439586 -0.483744
-1.101752 2.419587 -0.378513
0.169831 2.454174 -0.542673
-2.967295 1.056491 6.164981
-0.355374 0.750304 0.338641
2.302543 1.221162 7.693132
-0.386846 0.838659 0.294241
5.657583 1.971087 11.461640
-0.438129 0.906844 0.106353
-0.114150 0.991419 0.335326
2.220232 2.065501 8.000562
-1.286868 1.967646 6.988508
3.343520 2.410406 7.728602
4.383121 2.667974 8.684359
7.267298 2.979603 9.212404
7.360349 3.044071 9.108651
3.915408 2.551769 5.586180
3.878350 2.495473 5.485648
4.553360 2.620940 6.247375
-0.351133 1.401823 0.515309
-0.100198 1.428859 0.404291
4.095768 2.795189 4.650213
-0.768996 1.952896 1.961816
4.016051 3.353437 4.795683
4.016051 3.353437 4.795683
1.811818 2.244118 1.039968
-1.100437 2.035247 0.189203
1.205581 1.914923 -0.557416
-0.227663 2.112436 -0.136798
-0.407881 2.172526 -0.439494
0.872389 2.246670 -0.559788
-1.349874 2.414377 -0.115900
-0.500409 0.796619 0.264055
-0.249827 1.012332 0.295202
-0.099248 1.043114 0.360306
5.511494 2.863491 11.620795
2.642117 2.318643 8.038735
-0.069785 1.213867 0.394717
3.004251 2.566452 7.742963
5.712782 3.174715 10.519847
3.791004 2.498830 5.547707
2.890597 3.200763 6.495781
-0.913364 1.980090 1.944447
-0.522597 1.945884 1.688379
4.086036 3.178324 4.719684
4.145592 3.213466 4.821875
4.205996 3.228364 4.829808
-0.047482 1.741729 0.528078
0.062211 1.510798 -0.282902
-0.617104 1.809620 0.212751
-1.289371 2.246307 1.487755
-0.988034 1.901976 0.121029
-0.460219 2.025707 0.308680
-0.053066 2.054806 -0.358223
0.865476 2.193362 -0.143171
0.028953 2.397652 0.034899
0.815125 2.245052 -0.395015
-1.516784 2.383883 0.095370
0.916943 2.242641 -0.543918
0.897503 2.242899 -0.580592
0.970923 2.247874 -0.505228
-1.462346 2.403431 0.033168
-0.437582 2.090566 -0.628633
0.916784 2.256115 -0.641023
0.989730 2.247554 -0.608399
0.175390 2.457093 -0.660025
-0.169422 0.773503 0.553865
2.350065 1.323229 7.819042
0.102226 0.865226 0.626046
5.079476 2.125258 11.779686
-0.293288 1.051779 0.271540
3.319344 2.510312 7.945936
5.007314 2.619339 6.955008
3.974365 2.908279 4.551887
4.015567 2.935032 4.623493
-0.540314 1.987156 1.699631
4.362350 3.227987 4.921458
-0.465646 1.840692 0.631298
-0.746917 1.781880 0.111736
-0.720652 1.805826 0.084382
1.308782 2.266286 0.202556
0.677605 1.948237 -0.440213
-1.032521 2.255742 0.163962
-0.595634 2.113823 -0.221194
0.798724 2.233899 -0.211024
0.922322 2.234297 -0.389272
-1.388442 2.416344 -0.072184
0.421664 2.442737 -0.398005
3.850520 2.238890 8.537884
3.260469 2.912158 7.553059
-2.235107 2.836474 6.710964
-0.069622 1.451483 0.544326
-0.073831 1.450206 0.535932
-0.801816 1.973986 1.828156
-0.783466 1.950647 1.581496
2.035517 2.171041 0.846044
-0.785618 1.783562 0.068633
-0.496331 2.002219 0.319974
-0.901542 2.035956 0.086025
-2.919796 5.330430 6.425367
1.045671 2.216636 -0.397201
-0.123661 2.209668 -0.223367
0.863099 2.025374 -1.037436
2.297558 1.136140 7.429374
-0.482750 0.789200 0.248700
-0.557270 0.957952 0.729730
0.077461 0.903072 0.623012
3.240558 2.708239 7.936656
-0.742900 1.734605 0.170784
0.174843 1.887230 -0.313778
0.194027 1.968172 -0.345853
0.185945 2.130461 -0.228488
-0.172736 2.149336 -0.202507
-0.162736 2.169403 -0.156778
0.459467 2.145399 -0.446331
-3.005500 1.012944 6.125664
-0.451308 0.960116 0.212029
3.123498 2.215317 8.228750
3.426055 2.197774 7.758108
-0.023173 1.104257 0.381124
-0.111678 1.335438 0.326204
-0.792003 1.954734 2.132337
-0.599451 1.958331 1.736711
0.391452 1.562493 -0.530890
-0.375598 1.995803 0.274352
1.209761 2.300601 0.406410
1.005707 2.024476 -0.582256
-0.400652 1.001434 0.204253
-1.292204 2.184653 1.901209
0.112748 1.759623 -0.332039
0.780697 2.160365 -0.241498
-2.483623 2.160314 6.633010
-2.156335 3.279404 6.727234
0.546466 1.564521 -0.729722
0.127537 1.990994 0.239018
0.511818 1.870353 -0.543919
0.102413 0.916295 0.632318
-0.079647 1.841440 0.381653
-0.079647 1.841440 0.381653
0.535866 1.579969 -0.590963
-0.951441 2.010241 -0.032918
0.854784 2.224075 -0.216127
-0.207587 2.125761 -0.335011
0.075654 0.875039 1.022278
-0.360771 0.855032 0.077457
-0.413002 1.345621 0.560578
-1.000072 1.908952 0.103479
-1.118515 2.134670 0.292391
-3.314172 1.822500 8.318221
-0.562742 1.965462 0.405390
-0.305051 2.224372 0.014778
0.095472 1.139020 0.868973
0.279523 1.825187 1.476138
-0.572085 1.797889 0.844639
-2.244910 2.358609 2.926432
0.865637 2.262482 -0.565766
-0.758728 1.831848 0.133732
2.726043 3.187974 7.035062
0.879386 2.264908 -0.337571
1.438438 2.315725 0.703034
-0.166431 1.437699 0.360278
0.914456 2.218285 -0.316506
-0.396456 2.154814 -0.363022
0.475702 1.515439 -0.468685
2.549077 2.550911 8.034864
6.236524 3.218851 10.614136
-0.967975 2.388248 7.032851
3.203152 2.780362 7.892758
3.094843 2.824114 6.972030
3.940663 2.476664 5.428083
5.094294 2.431069 4.171614
4.102631 2.652329 5.052422
4.422009 2.723531 4.953496
5.111862 2.538912 4.129991
0.429049 1.747831 1.202066
4.327020 2.780510 4.851663
-0.399924 1.488238 0.351945
-0.028691 1.739069 0.499599
0.064023 1.621738 -0.231085
2.272706 2.124250 0.446629
2.272706 2.124250 0.446629
2.271095 2.149490 0.411827
0.135549 1.716054 -0.388570
-0.748246 1.858305 0.070172
1.327645 2.268644 0.265960
-0.047892 2.050265 0.014762
-0.085228 2.065267 -0.415733
0.626599 2.139642 -0.473184
0.991632 2.203271 -0.409578
-0.206072 2.164702 -0.399912
0.808989 2.344388 -0.569599
-1.300211 2.388074 0.066230
-1.204799 2.393890 -0.030555
0.559772 2.430422 -0.391436
-1.188084 2.395622 -0.042992
0.070746 2.435774 -0.435109
0.639008 2.454714 -0.537874
-1.281438 2.412765 -0.212780
0.066991 2.446589 -0.559902
0.272435 2.444679 -0.539009
0.305272 2.453486 -0.568957
0.414436 2.463507 -0.657234
-0.746279 2.430426 -0.464686
-0.137476 2.443458 -0.540381
0.193610 2.461823 -0.599944
-0.885322 2.431080 -0.497500
-0.668950 2.439726 -0.535749
-0.238769 2.457071 -0.675344
0.073791 2.462113 -0.706914
0.078131 2.460859 -0.729742
0.493425 2.480123 -0.875987
-0.854516 2.435715 -0.559127
-0.446847 2.453293 -0.655816
-0.384836 2.457713 -0.730090
-0.864952 2.448610 -0.687058
-0.695509 2.456860 -0.797249
-0.547374 2.459391 -0.805912
-0.531194 2.463125 -0.859768
0.416689 2.494204 -1.060050
0.202930 2.495065 -1.138067
-0.449175 2.480178 -1.043385
-0.331381 2.478119 -1.028346
-0.198966 2.484943 -1.093029
0.064775 2.491451 -1.158555
-0.523719 2.478467 -1.046026
-0.449186 2.482969 -1.114163
-0.405022 2.489136 -1.190507
6.402734 3.096880 9.622504
4.394371 2.528910 6.595523
7.658559 3.093300 8.673988
3.850987 2.514888 5.017946
5.102672 2.397946 4.179748
4.939299 2.615400 4.328966
5.139840 2.470994 4.257866
5.111597 2.569736 4.114484
5.109479 2.569594 4.112691
-0.195985 1.458274 0.337551
4.673001 2.700054 3.791716
4.597778 2.854442 3.765217
4.574970 2.852780 3.645838
2.255856 2.131194 0.433794
-0.722613 1.793249 0.126360
-1.389219 2.299245 1.135278
-0.992597 2.097147 0.094761
-0.416106 2.198694 -0.124771
-0.120390 2.290197 -0.030798
0.919181 2.234870 -0.430084
1.007182 2.247162 -0.502421
0.957251 2.248562 -0.625988
-1.080919 2.387304 0.079525
0.096244 2.425026 -0.159962
1.465888 2.298232 -0.940716
-1.210385 2.427113 -0.301079
-1.146041 2.427982 -0.389767
0.410922 2.487417 -1.009232
-0.712522 2.456832 -0.777075
0.086043 2.477747 -0.982837
-0.641247 2.463848 -0.884921
-0.344033 2.481327 -1.056574
-0.671930 2.475832 -0.998276
-0.113920 1.384415 0.370261
3.587579 2.896354 6.746027
-0.395304 1.710182 0.461364
-0.112682 1.720290 0.406610
0.402911 1.510445 -0.273998
-0.761382 1.818401 0.110105
0.062409 2.056074 -0.204111
1.031357 2.251648 -0.382306
1.055804 2.231833 -0.409727
0.851404 2.028954 -0.907946
-0.230782 2.116308 -0.461319
1.309267 2.227431 -0.878992
0.925168 2.491613 -1.012192
-0.869135 2.463990 -0.751918
-0.775443 2.453493 -0.741950
-0.405536 2.478946 -0.912751
-0.415922 2.472013 -0.962122
-0.321059 2.475021 -1.007294
-0.608668 2.471236 -0.984161
-0.861006 1.985243 2.036852
-0.712644 1.982875 1.832514
-0.432377 1.980362 0.457084
-0.993134 1.955027 0.101167
0.551944 2.024755 -0.394428
1.050690 2.232877 -0.053404
1.050690 2.232877 -0.053404
0.522984 2.120526 -0.437502
0.739140 2.335783 -0.383068
1.041596 2.169498 -0.777645
1.420789 2.197457 -0.921439
1.489588 2.353669 -0.948386
-0.342525 2.470671 -0.907277
0.141979 2.491273 -1.109030
-0.575327 1.926060 0.438437
-0.728197 1.852836 0.036679
1.301926 2.263097 0.232722
5.078386 2.632936 5.137984
0.394816 1.735108 1.140474
4.648940 2.859280 3.619578
0.064481 1.604068 -0.214792
-0.174759 2.045443 0.173844
1.266631 2.036513 -0.329631
1.369705 2.117579 -0.177666
0.108466 2.340511 -0.156116
0.430211 2.419202 -0.307185
0.449021 2.373801 -0.429619
0.074298 1.959237 -0.108047
0.460349 1.881160 -0.397412
-0.047755 1.950076 0.456154
0.055596 1.953209 0.288404
-0.581972 2.002188 0.214074
0.040862 2.159238 -0.160985
0.040862 2.159238 -0.160985
-0.749237 2.157363 -0.331602
4.027550 2.438658 5.506264
4.411727 2.790880 4.359033
-0.547724 2.090256 -0.085762
1.426570 2.097617 -0.910714
0.893034 2.295518 -0.590536
3.095884 2.542816 7.845939
2.612544 2.958681 7.758209
-0.414352 1.724167 0.551015
0.903611 2.379990 -0.905608
0.393698 1.969550 -0.440738
-0.619826 2.459754 -0.879620
-1.274682 2.402943 -0.158416
1.022458 2.225413 -0.112509
0.061914 2.336400 -0.228252
3.445598 2.875978 5.395621
3.296528 1.333988 14.365300
5.884812 1.062594 10.993109
-3.350689 0.906745 5.871555
-3.348908 0.906487 5.867874
-3.162532 0.867031 5.981707
-2.970936 0.943343 6.185376
5.019341 1.245366 11.693463
6.378947 1.117662 10.280834
6.533814 1.042688 10.076670
6.522221 1.146899 10.077186
6.603754 1.201255 10.119735
6.684396 1.136088 9.916144
-3.026268 1.064209 6.145798
2.271635 1.177822 7.943186
5.913095 1.380301 11.001364
6.209987 1.581366 10.614239
6.516134 1.438316 10.126524
6.613933 1.454208 10.015957
6.743396 1.341526 9.862694
6.743396 1.341526 9.862694
6.710197 1.419987 9.927065
6.702473 1.463457 9.884368
2.433990 1.366213 7.798326
2.497988 1.372756 7.767030
5.206336 1.858607 11.958666
5.881573 1.641005 10.914539
6.265008 1.685726 10.486451
6.241278 1.832688 10.508817
6.242299 1.832733 10.510953
6.639201 1.689306 9.963851
6.681274 1.653464 9.975182
5.745637 1.969154 11.104753
5.742101 1.967294 11.096410
6.151355 1.977379 10.719378
6.251780 1.849824 10.122317
6.313991 2.042393 10.254394
3.313606 3.061937 14.559585
2.203856 1.843691 7.889980
2.321994 1.695858 7.108845
3.940028 2.916012 13.634306
5.478976 2.498557 11.607805
6.186907 2.224274 10.627446
6.188194 2.224575 10.630216
6.174115 2.265922 10.660876
6.762481 2.217126 9.868467
3.786068 2.978558 13.026110
-0.696059 0.787924 0.763063
-0.643123 0.852313 0.755788
2.216811 2.367925 8.012568
3.222556 2.173481 7.543061
5.583307 3.126654 11.471652
6.253085 2.932010 10.592845
6.273327 2.651785 10.205501
6.311274 2.937745 10.509460
6.748520 2.724585 9.944859
6.853430 2.691689 9.756431
2.804066 2.615561 7.903274
5.509842 3.362587 11.692011
6.217695 3.019596 10.642564
6.277687 2.872279 9.552923
6.297225 2.956257 9.751037
6.737262 2.857630 9.946766
-0.444358 0.833608 0.286317
-0.171800 0.883494 0.514783
2.339449 2.746028 7.901600
3.195914 2.638668 7.743504
-0.600415 1.013277 0.639213
1.881074 2.822926 7.225688
3.424547 2.594405 6.117201
4.104480 2.750954 6.820515
-3.391929 2.666287 5.928991
-0.347402 0.975415 0.210655
-0.288975 0.955071 0.237363
2.457299 3.028926 7.530004
2.603415 3.110197 7.699163
2.721320 3.045847 7.005187
3.071257 2.851219 6.370253
3.367617 2.884998 6.386628
-0.315067 1.187326 0.374205
4.063949 2.835126 5.006851
3.210534 2.987182 5.113551
3.458613 2.979792 5.245938
4.056806 2.872088 4.893994
2.888887 3.327330 5.382867
3.827777 3.027826 4.810545
-0.781477 1.957939 1.655336
1.040514 2.052011 1.061115
-1.240039 2.212456 1.460325
-0.492444 1.897767 0.626145
-0.477714 1.896825 0.625759
-1.993743 2.287309 1.263977
-1.917002 2.291384 1.263516
-1.917582 2.292524 1.266208
-1.269047 2.294730 1.222082
-1.884600 2.307461 1.074624
-1.882386 2.303336 1.067211
-0.840261 1.780494 0.128004
0.206953 1.570678 -0.390074
0.713526 1.505660 -0.564611
-1.287443 2.323251 0.874201
-1.295611 2.327512 0.820889
-1.961878 2.341871 0.686263
-1.904722 2.341376 0.636371
-1.445396 2.340768 0.607301
-1.803593 2.344300 0.536878
-1.466571 2.345066 0.597503
-1.096028 2.217774 0.140257
-1.560944 2.380872 0.157106
-1.262462 2.382993 0.203193
-1.202653 2.383052 0.133878
0.952028 2.223527 -0.225103
-2.062307 3.166038 1.044792
-0.401873 2.152881 -0.343533
-0.091949 2.054405 -0.412031
-1.410082 2.401389 -0.042242
-1.340073 2.390994 0.001244
-1.340649 2.391290 0.001826
-1.204730 2.393283 -0.031779
-1.014171 2.399958 -0.073450
-1.257493 2.396187 -0.109720
-3.269847 0.758993 5.915965
5.397307 0.963374 11.642497
6.054541 0.897130 10.703534
6.122739 1.042947 10.686673
5.830054 1.315230 11.139376
6.194525 1.072922 10.582314
2.131989 1.148850 7.985061
5.071268 1.538440 11.828227
6.009039 1.588400 10.822490
6.125739 1.359841 10.562893
6.298803 1.425157 10.473656
6.724383 1.466359 9.803651
2.156170 1.337378 7.998631
6.284486 1.617835 10.147395
6.572950 2.018744 10.123460
3.388171 2.862677 14.483742
5.167354 2.501643 12.127023
6.240779 2.293926 10.563084
-0.126965 0.761761 0.657840
3.345070 3.160235 14.574522
3.370688 3.175720 14.682052
6.137187 2.685800 10.799445
6.001576 2.904771 10.965520
6.168016 2.915174 10.702041
6.299298 2.872627 10.295776
3.337023 2.509889 7.494583
3.384264 2.539285 7.629618
6.287882 3.213765 10.567632
6.666043 2.956926 9.766698
-0.150093 0.933189 0.418674
-0.584165 1.019244 0.582994
-0.412186 1.094733 0.324375
3.024320 2.832230 6.110700
2.945037 3.429071 5.974416
-0.656246 2.009231 1.525907
3.388318 3.431025 4.759081
-1.882740 2.286776 1.430808
-1.536124 2.272190 1.493867
-2.260627 2.301687 1.153300
-0.894449 1.797262 0.215205
-1.662507 2.318321 0.920130
-1.572959 2.316676 0.954945
-1.939792 2.324382 0.753660
-1.652850 2.336974 0.649557
-0.094368 2.039632 0.144508
-1.720021 2.368802 0.367847
1.243458 2.303817 0.121628
-1.633099 2.370212 0.249426
-3.130509 0.713625 6.058316
2.295428 1.021249 7.919272
5.834564 1.629995 11.146223
-3.191893 1.199813 6.036455
2.479588 1.635357 7.294311
3.372500 3.016100 14.459114
6.670224 2.213119 9.962224
6.747506 2.274814 9.895795
6.148272 2.611644 10.766273
6.890598 2.746597 9.696529
-0.152826 0.892303 0.609969
6.194645 2.869696 9.501664
6.273318 2.893872 9.657423
6.369337 3.020126 9.786953
-0.366024 0.995032 0.218323
4.043271 2.526988 5.260701
3.209957 3.374351 6.204506
-0.759152 1.964013 1.702770
3.825928 3.256541 4.857279
1.826358 2.214196 1.651269
-1.356326 2.225450 1.705321
-0.041314 1.713102 0.404383
1.746710 2.305642 1.661119
1.782145 2.225597 1.597161
1.594633 2.219112 1.145569
1.388062 2.324099 0.510947
0.052413 1.982411 -0.159104
0.070063 2.030210 -0.152034
-1.665034 2.368428 0.293657
0.850785 2.221144 -0.265333
1.068474 2.227894 -0.277150
0.753774 2.282830 -0.322155
0.926360 2.219244 -0.397831
-3.128142 0.713667 6.054670
5.777456 2.850705 11.395267
5.745444 3.367658 11.035644
-0.233640 0.882370 0.292419
4.328685 2.464591 6.059809
-0.502324 1.042756 0.455998
4.069134 2.747024 5.063173
-2.107092 3.763185 6.856973
4.394047 2.951205 4.724097
3.574130 3.499147 4.895207
3.894160 3.429110 4.739762
-0.425375 2.095877 0.656449
2.079990 2.252418 0.747163
-3.286138 6.829663 8.447625
-1.467745 2.351814 0.490785
-1.098942 2.127474 0.155930
0.090462 2.027048 -0.069000
-0.921600 2.094278 -0.307104
-0.887754 2.066115 -0.355551
5.888661 0.970498 10.816632
5.888661 0.970498 10.816632
-3.281264 1.121623 5.976001
-3.285724 2.247052 5.918137
-0.018209 0.968269 0.558078
4.223840 2.589991 5.142899
-2.915654 4.217429 6.372570
-3.688180 4.142485 5.775809
2.092475 2.209064 1.350674
-1.330294 2.240341 1.500488
-0.448957 2.243139 0.878179
0.911226 2.207832 -0.317624
2.285086 0.991861 8.025926
0.012230 1.076398 7.172853
2.293013 1.780920 7.160052
2.547257 2.094545 8.131597
6.552773 2.697941 10.062690
4.308275 2.681084 4.931072
-0.695283 1.946669 1.719758
-0.976038 2.064696 0.141935
2.213234 1.075343 8.205885
-2.998452 1.010758 6.092013
-3.004371 1.190489 6.151640
-0.049280 0.796895 0.514226
-0.402145 0.880120 0.089391
2.906547 2.836893 6.304671
3.649600 3.365005 5.084302
-3.027189 0.839364 6.183131
-2.920787 1.084407 6.203907
-0.276243 2.171563 -0.349535
-2.960823 0.766733 5.911863
-2.755423 0.930590 6.510231
-0.458036 1.020468 0.325138
2.947126 3.053247 6.355955
1.191562 2.212541 -0.110636
-2.926597 2.765325 6.409592
-1.209500 2.186945 1.651583
1.850732 2.207177 1.434690
0.652289 1.966833 1.363781
-1.165625 2.113613 0.238282
-1.034986 2.128273 0.129644
3.223001 2.233683 7.640910
0.410066 1.849791 1.245343
3.894229 2.497095 5.413682
-0.699954 1.793413 0.156516
-0.732834 1.760323 0.139448
0.848533 2.235127 -0.310700
-0.453086 1.106695 0.358172
2.005389 2.236385 0.779828
0.505884 2.167960 -0.416393
1.142846 2.320583 0.090051
-1.179641 2.131846 0.243129
-0.806660 1.721674 0.101706
1.909439 2.299881 0.632219
1.393070 2.299028 0.635917
-3.174748 0.982797 5.987148
3.241440 1.992700 14.513971
2.228550 1.088183 7.633702
5.539868 1.561835 11.517999
5.539868 1.561835 11.517999
2.699726 1.313140 8.274206
5.557647 1.905730 11.421109
5.638379 1.658756 11.273514
5.905874 1.688683 10.987841
5.883270 1.842900 11.052138
6.644741 1.723823 10.030063
6.642620 1.723667 10.028254
3.584258 2.671070 14.246774
6.196688 1.986085 10.628537
6.699696 1.775337 10.016353
2.411979 1.656673 7.221869
3.294450 3.202788 14.612655
5.980459 2.702873 10.977714
6.715053 2.358193 9.972092
2.402072 2.283682 7.918426
6.031684 2.957256 10.865561
6.032563 2.957366 10.869090
6.193860 2.667363 10.669868
6.477595 2.741927 9.827912
-0.636166 2.204434 7.107189
3.791929 2.469468 8.487782
5.473864 3.249177 11.779886
5.519232 3.436722 11.613433
5.940903 3.235810 10.929326
6.243114 2.978187 10.634201
6.242547 2.977954 10.633357
6.397335 2.954643 9.652542
5.558607 3.449287 11.534358
5.782105 3.458237 11.401536
6.170887 3.247626 10.574154
6.177020 3.357152 10.610450
-0.379913 0.778304 0.349965
3.193119 2.729363 7.647168
4.275191 2.542269 6.721852
-0.596138 0.943211 0.731739
0.013082 0.950836 0.585043
2.554068 3.032535 7.794756
-0.443369 0.916372 0.335279
-0.443369 0.916372 0.335279
2.934934 2.974708 6.368789
3.258316 2.885725 6.349606
-0.417602 0.928235 0.131494
-0.168599 0.971866 0.335605
-0.414408 1.044740 0.267973
-0.130281 1.032663 0.341927
3.818938 2.814633 4.716226
3.981748 2.861040 4.567282
2.946107 3.124467 5.104341
-0.705686 1.922418 1.871784
-0.350597 1.402619 0.521404
0.104381 1.423910 0.683961
0.407569 1.718900 1.201489
3.724140 3.511663 5.293486
3.811302 3.393141 4.926775
3.810822 3.393161 4.926437
-0.719712 1.964995 1.621075
3.955311 3.408567 4.727045
4.095822 3.530262 4.843339
4.119641 3.554286 4.833157
-0.815425 2.102305 1.469481
0.885700 2.201565 1.475734
-1.600867 2.271264 1.572787
-1.229601 2.243924 1.448878
-1.192574 2.185094 1.476867
1.732987 2.224885 1.446849
-1.890274 2.281774 1.359407
-0.784811 1.706023 0.297909
-0.483030 1.946371 0.588653
1.587985 2.243372 0.974682
-1.648056 2.308059 1.024391
-1.650236 2.312294 1.029642
0.061736 1.574061 -0.248776
1.957359 2.221338 0.836972
-1.411485 2.314606 0.957136
-0.866649 1.791818 0.114622
1.762414 2.293578 0.723531
-1.969930 2.319473 0.856168
-1.871376 2.323634 0.784350
-1.866195 2.326544 0.752910
-1.862625 2.318888 0.867056
-1.726056 2.335689 0.792448
-1.867117 2.355293 0.562486
-1.601839 2.348420 0.535325
-1.547544 2.346280 0.522049
-1.347840 2.361902 0.393866
-1.684801 2.374956 0.322741
-1.437132 2.359897 0.309235
-1.436312 2.357870 0.306723
-1.302469 2.372186 0.220445
-0.358698 2.118266 -0.101460
-0.278775 2.095974 -0.116574
-0.128502 2.258814 0.047531
-1.543059 2.375371 0.150216
-1.262462 2.382993 0.203193
1.039906 2.248189 -0.185352
-1.532771 2.387233 0.120499
-1.534687 2.400516 0.110752
-1.333945 2.385911 0.085174
-1.388854 2.394982 -0.052960
-1.270464 2.392111 -0.028854
0.926167 2.225577 -0.410399
0.962303 2.196028 -0.380822
-1.106992 2.403133 -0.105219
5.482301 1.633869 11.636215
3.338123 2.359457 14.515669
6.725537 1.621054 9.987470
-3.693172 1.147583 5.640051
-3.737103 1.168050 5.596279
-3.110787 1.233549 6.069688
6.649066 1.806075 9.983961
3.389549 2.938022 14.439721
3.577727 2.867827 13.756082
2.849798 1.812062 7.979189
3.419951 3.348877 14.454683
-0.165950 1.720664 6.152594
-0.067679 0.680479 0.720246
6.698995 2.733884 10.103951
6.637633 2.662982 9.921237
6.779502 2.727337 9.850004
6.116212 3.213867 10.695484
6.116844 3.216702 10.697439
6.402182 2.831527 9.631816
6.683633 3.008798 9.933306
6.666983 2.956776 9.767541
-0.512137 2.422027 7.157371
-0.173715 0.767725 0.643447
3.493251 2.576757 7.573533
5.687501 3.502989 11.457491
6.042680 3.292283 10.664064
6.895560 3.050392 9.722596
-3.383231 2.359181 5.945929
-2.241622 2.701041 6.645537
-0.333658 0.837275 0.346908
-0.260057 0.779281 0.212532
-0.062041 0.891765 0.452753
-0.062041 0.891765 0.452753
3.286518 2.395050 5.711059
3.825952 2.479342 5.667680
-0.177575 0.931973 0.342724
0.029621 0.977666 0.559084
3.796338 2.527128 5.467898
2.758005 3.350764 7.263721
2.944178 3.204665 6.423216
3.624372 2.952015 5.379717
2.954478 3.352914 6.055802
-0.744923 1.933399 1.855438
-0.773811 2.047470 1.480012
-0.403078 1.718001 0.466405
-0.376010 1.685634 0.498489
0.920149 1.990423 1.036777
1.063980 2.030497 1.068669
-0.366371 1.710844 0.364914
-2.070327 2.284510 1.266928
0.258958 1.504742 -0.178924
1.850302 2.262651 0.842506
0.719682 1.481543 -0.483461
1.944852 2.373640 0.743305
-0.706404 1.891987 0.117638
-1.762413 2.363136 0.424849
1.028102 2.222208 -0.164336
-1.500533 2.394054 0.080422
-0.807347 2.321187 -0.045396
0.076490 2.447220 -0.154527
3.441243 2.369755 14.399231
6.136890 1.640275 10.600084
6.136890 1.640275 10.600084
5.283859 2.491438 11.910546
2.544697 1.864135 7.460141
3.304172 2.273117 7.670024
4.809909 2.370537 6.286152
-0.376480 0.791012 0.273969
3.346920 2.877797 6.008023
-0.871858 2.014889 2.140642
3.448449 3.404991 5.057746
4.127272 3.380970 4.891906
4.370667 3.549204 4.933249
-1.096302 2.174552 1.897994
-0.993918 2.180225 1.318090
1.640228 2.327688 1.605431
1.716276 2.345768 1.520140
2.125643 2.255030 1.477025
-0.414161 1.833244 0.537547
-0.161051 1.720346 0.336453
-2.144345 2.290434 1.215045
-1.392865 2.285186 1.300425
-0.447886 1.947333 0.574228
1.971909 2.209044 0.940723
-0.900676 1.777138 0.125896
-0.902114 1.781896 0.132677
-0.879520 1.775683 0.104912
-1.156353 2.096159 0.275090
-0.576277 2.121876 -0.019021
-1.029793 2.249825 0.160018
0.895587 2.210876 -0.339510
5.126122 1.989708 11.945729
6.298500 3.067755 10.455076
6.615582 2.984700 9.885561
-0.591537 0.894827 0.757547
1.823938 2.859161 7.235728
3.625753 2.903191 6.543012
3.306667 3.402853 6.218435
3.814670 2.979688 4.831981
-0.953032 1.989174 1.869909
1.257343 2.229512 1.368151
2.000297 2.271535 0.780609
-0.700893 1.935017 0.120494
0.905085 2.211183 -0.233815
-0.173883 2.285990 -0.203188
-3.210361 1.302442 5.988950
3.013819 1.747293 7.790313
6.060429 3.355445 10.567095
0.049799 1.022670 0.509338
3.943909 2.685435 4.991010
-0.635127 1.988977 1.444513
-2.175234 2.280746 1.233032
-3.004502 6.592378 7.956598
1.249708 2.055349 -0.040990
6.315269 2.955089 9.654090
3.033570 3.185929 5.462661
-0.589018 1.991601 0.439301
0.073640 1.574907 -0.384191
0.214383 2.260848 -0.134975
0.219800 2.281845 -0.112799
-3.548424 1.198758 5.780544
-3.535019 1.193895 5.746224
4.783339 2.464150 6.296594
-3.495858 2.516648 5.923105
2.857807 3.397338 5.678158
2.857807 3.397338 5.678158
0.112265 2.176514 -0.195823
1.093140 2.206243 -0.334275
2.991174 1.382245 7.924638
-0.069519 0.821823 0.341712
-0.582051 1.833969 0.409395
-0.507101 2.030235 0.644648
-0.170055 2.193684 -0.368980
-0.947783 2.152453 1.298237
0.814095 2.167147 -0.311509
4.889938 2.663301 6.488594
0.491816 1.582944 -0.599288
-0.957942 2.049840 0.018412
0.447639 2.085918 -0.432379
-0.657842 2.213677 -0.278642
-3.060932 1.156133 5.973650
4.125209 3.354145 4.788165
0.287355 1.800215 1.316824
0.287355 1.800215 1.316824
-1.207182 2.182950 1.645167
-0.185690 2.223515 -0.191756
0.650612 1.960051 1.357557
-0.355691 1.880094 0.407376
-0.415914 0.903833 0.172814
-0.274855 1.767453 0.617645
3.198217 2.759579 4.572929
-0.627091 0.833860 0.761114
3.836080 2.794733 4.817748
-2.013286 2.315241 0.874241
-2.012767 2.314693 0.873270
-0.041264 1.784341 -0.224940
-0.284129 1.725839 0.390373
-0.326838 0.807042 0.351574
2.425522 1.297732 7.658148
-1.367736 2.324699 0.894127
-0.023306 1.558432 -0.298152
2.942379 1.486097 7.843166
-2.295472 1.158428 6.665883
6.513088 3.485197 10.983234
6.629595 1.688693 9.943817
5.451223 2.250429 11.658103
5.451223 2.250429 11.658103
6.153059 2.021357 10.705101
6.212352 2.033514 10.570953
6.253253 2.038020 10.512828
3.379902 3.340606 14.630494
5.824797 2.272000 11.036036
6.941114 2.131453 9.625177
-1.273490 1.922829 6.942925
6.096125 2.717799 10.817818
6.177136 2.711957 10.697681
6.197231 2.718459 10.740153
6.222615 2.710104 10.631213
6.827511 2.372958 9.718229
6.990881 2.390524 9.532935
-2.168071 1.825088 5.801804
6.184413 2.848042 10.693955
6.776290 2.692227 9.965844
6.829060 2.697675 9.921496
-1.075052 2.389452 7.009287
-0.820614 2.420331 7.080607
-0.138458 2.410321 7.185276
2.702848 2.566530 7.895466
3.310380 2.651014 8.076499
5.618246 3.339255 11.534672
6.246598 3.173636 10.636355
6.640592 2.868155 9.724625
-2.373706 2.433966 6.767063
-2.249204 2.434757 6.669522
6.149792 3.290278 10.559503
6.279873 3.274819 10.515270
6.729706 3.061760 9.649918
2.185656 2.849712 7.497768
2.933216 2.978164 7.540681
-0.311230 0.853834 0.370741
-0.182820 0.868006 0.530933
0.058769 0.924400 0.589948
3.055649 2.846180 6.224027
-3.356470 2.946937 5.962050
-3.348574 2.937322 5.934743
3.544707 2.936556 5.607596
4.190964 2.830483 4.914378
4.340707 2.786831 4.888654
3.767533 2.984177 4.992188
3.753663 3.101869 5.035495
4.192544 3.186298 4.842867
4.361783 3.015343 4.505042
2.833044 3.466990 5.222949
3.645652 3.422241 5.211695
0.464279 1.804544 1.259376
4.310193 3.562591 4.728767
-1.191097 2.234411 1.339769
0.563608 1.923577 0.909957
0.849091 2.182895 1.204989
1.478921 2.213949 1.249495
-1.993818 2.285970 1.261978
-0.786653 1.705615 0.296854
0.932311 2.232609 1.076855
1.450939 2.243364 1.155584
-1.759319 2.300472 1.153095
-1.381309 2.311223 1.127942
1.922722 2.222061 0.981594
-0.884098 1.755096 0.166933
-0.614749 1.787212 0.247962
-2.113258 2.327506 0.885775
-2.067492 2.335090 0.827920
-1.751186 2.317371 0.938219
-0.857796 1.788938 0.120754
-1.883273 2.323906 0.762154
-1.426652 2.331768 0.750400
-0.496772 1.993672 0.276709
-0.011493 2.291976 0.664075
-1.674122 2.337667 0.569956
-0.998608 1.955383 0.080873
-1.998167 2.724563 0.891775
-1.424888 2.358543 0.380688
-0.171587 2.120487 -0.114017
-1.475797 2.378449 0.140923
-0.631704 2.122059 -0.202967
1.227358 2.407579 0.090482
0.998781 2.210493 -0.207163
1.121634 2.226462 -0.279712
-1.175805 2.392264 -0.026804
-0.728514 2.332413 -0.162980
0.853333 2.210950 -0.343453
1.072270 2.213031 -0.382640
1.110582 2.221413 -0.339637
-0.984173 2.403397 -0.112999
6.239237 2.293093 10.559407
5.412152 3.517964 11.740889
3.219746 2.747644 7.671370
3.225208 2.770864 6.548162
-0.304737 0.830445 0.376661
4.354286 2.597658 5.316653
3.708051 2.964022 5.163004
-0.003441 1.153380 0.449834
3.289576 3.049900 4.892737
-0.281233 1.197719 0.375683
-0.847692 1.980773 1.764062
3.661208 3.529612 4.889849
3.992116 3.759055 5.341866
-1.150773 2.132966 1.664264
-1.475267 2.220072 1.426988
-0.903578 2.186623 1.376673
1.831089 2.288204 1.531829
-0.146688 1.733916 0.393313
1.105071 2.186789 1.125952
1.351935 2.235982 0.939081
1.435105 2.245655 0.918682
-0.408873 2.000924 0.384091
-1.286453 2.356690 0.541148
-1.302810 2.360142 0.398010
0.074675 2.221571 -0.193356
-0.201621 2.257827 -0.246023
1.126247 2.221715 -0.308385
-0.230955 1.354779 7.024483
4.175600 1.835969 9.414150
2.927112 2.223705 8.179541
6.744300 3.013056 9.770803
2.960579 2.806873 7.822572
0.059972 1.042350 0.452926
3.285575 3.284479 6.113115
3.032292 3.505371 5.234429
3.974092 3.330142 4.804281
-0.921633 1.986803 1.833009
-0.778528 1.945359 1.629121
-1.415201 2.278565 1.316639
1.042732 2.142579 1.062901
-1.146735 2.306368 1.126923
-0.761643 1.731211 0.285158
-0.715860 1.706721 0.210807
-0.685605 1.856814 0.158594
-1.192245 2.124186 0.209272
0.046749 2.013884 -0.157083
-0.503207 2.092358 -0.156472
0.085917 2.093916 -0.223748
0.840662 2.224446 -0.374687
-0.639017 0.874123 0.742677
-0.153052 0.893453 0.614300
4.135203 2.502155 5.448670
2.481492 3.279448 6.570633
2.970099 3.485184 5.278349
3.202912 3.455560 5.045493
4.149279 3.453021 4.862882
-0.951048 2.045447 1.486502
-1.231734 2.189237 1.498913
-0.979322 2.093824 1.446569
2.090486 2.168328 1.182895
2.175783 2.112720 1.216170
1.591838 2.216898 1.115438
-1.185025 2.312689 1.061163
-0.622900 1.776615 0.241318
0.358184 1.433583 -0.331397
2.872828 1.438211 7.854634
-1.044362 1.899483 6.971597
3.873272 2.559725 5.359797
-0.136357 0.957368 0.414524
3.660893 2.935978 5.235002
4.239744 2.795475 4.856119
3.192749 3.080190 5.285497
4.229918 3.506002 4.887850
0.885782 2.222160 1.469684
-0.098665 1.725235 0.595856
-0.714213 2.189183 -0.124765
-0.172514 2.289914 -0.196679
0.084173 2.396303 -0.107158
-0.235308 0.834312 0.699999
-0.108565 1.585542 0.448414
-0.595562 1.798918 0.305693
0.183609 2.205689 0.270327
-1.929006 2.842290 0.868708
2.108413 1.771978 7.738367
1.807801 2.399398 8.404843
6.707987 2.766525 9.877944
-2.185788 2.263098 6.703623
3.565611 2.888616 6.910582
-0.633057 0.977718 0.593331
1.691866 2.241425 1.308590
1.215832 2.182403 1.163322
-0.830171 1.740842 0.082010
-0.762257 1.872768 7.060829
-0.359444 0.749182 0.328680
-0.271676 0.762310 0.259185
-0.694953 2.180903 1.531864
0.183412 2.282633 0.358293
0.183412 2.282633 0.358293
1.050661 2.300642 -0.062296
-0.990281 2.159341 1.816858
0.116672 1.567883 -0.259325
-0.759250 2.283449 -0.168014
-3.074736 2.174542 7.916099
-1.261141 1.829137 6.892916
6.343830 3.068468 10.769483
3.373510 2.686515 6.291995
0.451543 1.905436 1.376493
-1.427352 2.381284 0.017044
-0.661059 2.181131 -0.298190
4.625207 2.489058 5.855772
-0.454167 2.188119 -0.262148
0.708593 1.608414 -0.391052
3.339102 2.876842 4.868430
0.081385 2.054587 -0.166589
-0.112652 0.989695 0.338155
-2.819880 2.658453 6.350845
4.556601 2.573190 6.487165
-0.703209 1.719226 0.183726
1.791248 2.195072 1.227008
-1.518604 2.386618 0.101623
-0.409840 0.795482 0.269533
-2.014316 2.379382 6.791515
-1.012144 2.384323 0.119645
2.883234 3.138852 6.514421
2.752181 2.951316 7.641831
0.850188 1.898314 1.207857
-1.819326 2.850452 1.481235
3.073471 1.862568 7.689746
5.743614 2.617716 11.288255
5.736860 3.356148 11.523477
6.158636 2.972162 10.739496
6.837384 2.814628 9.748887
-1.779624 2.414457 6.818855
-1.161541 2.418893 7.000726
1.027983 2.564479 7.419945
6.569201 3.029297 9.652305
1.453849 2.722950 7.688551
1.695800 2.678460 7.455570
1.676657 2.697695 7.410061
1.512866 2.824749 7.263102
2.063313 3.068164 7.540776
3.113334 2.998850 7.596290
3.794434 2.810561 7.277087
4.204988 2.572232 6.837534
-0.807341 0.794542 0.741146
-0.151423 0.725302 0.623966
3.258442 2.797469 6.653886
3.384022 2.840651 6.737458
3.797073 2.561642 5.814428
3.783159 2.522105 5.600912
4.513641 2.655939 6.350353
2.802006 3.237470 6.929917
-0.272491 0.790649 0.387995
-0.292454 0.827564 0.377012
-2.270347 3.636672 6.749412
-0.261311 0.783730 0.220976
3.144493 3.293962 6.300640
3.270610 3.323458 6.208779
-2.324670 3.898329 6.868236
0.050298 0.989543 0.540509
2.731057 3.346934 5.819126
3.272116 3.426762 6.250542
4.067719 2.827645 4.698068
2.801712 3.384346 5.264117
2.806100 3.390732 5.274711
3.151383 3.142836 5.066466
3.357840 3.100225 4.856871
-0.407605 1.074803 0.308130
2.832518 3.386342 5.182480
3.099024 3.519783 5.204123
4.301766 3.354514 4.908923
1.227024 2.160836 2.347094
3.266572 3.476517 4.903252
1.624987 2.306029 1.630307
1.291267 2.234074 1.302990
1.434703 2.201624 1.273381
-4.186111 5.252193 5.521423
-1.715239 2.301142 1.215733
1.441634 2.231058 1.137229
-1.827987 2.302668 1.072433
-1.704216 2.305104 1.049046
1.441578 2.233805 0.974843
-2.162094 2.307452 0.978777
-1.631321 2.305749 1.019011
-1.632772 2.310527 1.025575
-0.676460 1.721643 0.195449
1.527360 2.256119 0.819333
-1.399252 2.330313 0.796499
-0.902881 1.775773 0.151455
-0.902881 1.775773 0.151455
-0.896594 1.799260 0.126619
1.415852 2.258273 0.754592
-1.886652 2.332276 0.771814
1.624495 2.322811 0.673476
1.604230 2.327460 0.642284
-1.793998 2.351711 0.591145
-1.345884 2.346373 0.603799
-1.345883 2.346304 0.603410
-1.331353 2.345511 0.614578
0.361719 1.498929 -0.384188
0.575361 1.478559 -0.461581
-1.163864 2.150310 0.186014
-0.850481 2.018151 0.047255
-1.485969 2.359068 0.376549
-1.482282 2.347973 0.362263
-1.461385 2.364970 0.289495
-1.303187 2.374038 0.224187
-1.231234 2.371456 0.217046
-0.925084 2.030671 -0.128299
-1.544383 2.378865 0.154071
-1.281847 2.378871 0.123650
-0.410771 2.171496 -0.118287
-1.270781 2.393557 -0.027626
-0.154864 2.285944 -0.184240
1.152840 2.229473 -0.306364
-1.331573 2.399139 -0.110270
-1.242373 2.403797 -0.164981
-1.013827 2.402017 -0.112795
-0.897996 2.348887 -0.212970
-0.779032 2.188647 -0.374007
2.719881 2.236314 7.953265
3.317108 2.340124 7.577603
5.683617 3.216110 11.447581
0.948701 2.703376 8.293066
5.484177 3.493955 11.631163
3.192182 2.749682 7.494496
3.066805 3.031069 7.511593
-3.560021 2.845744 5.811822
2.743821 3.263313 6.843526
3.001628 3.127371 6.278433
-0.396337 0.875361 0.314474
4.240880 2.840207 4.857382
2.944665 3.377944 5.129782
-0.281123 1.197544 0.375465
-1.045360 2.143956 1.917466
-1.115083 2.198604 1.869534
-1.115083 2.198604 1.869534
-0.928919 2.105615 1.505999
-1.368518 2.226151 1.600323
1.793301 2.234968 1.612896
-1.446166 2.289930 1.351278
2.083449 2.274656 1.402404
-1.237996 2.317495 1.061014
-1.118161 2.307581 1.107765
-0.767598 1.726629 0.341362
-0.530375 1.948972 0.538401
-0.009383 2.325213 0.664190
-1.364731 2.353962 0.436075
-1.365386 2.357179 0.438264
-0.915666 2.088664 -0.182159
-1.393707 2.400561 -0.063510
-1.392696 2.394650 -0.068878
0.488395 1.982083 -0.453015
0.474191 1.970073 -0.497686
0.926395 2.205983 -0.385440
1.100044 2.227292 -0.393286
1.202539 2.028828 -0.552645
0.832988 2.231318 -0.404687
0.049820 2.074215 7.720627
1.445679 3.113249 7.060452
-0.316606 0.758203 0.362998
-0.325788 0.811106 0.356252
3.133308 3.287498 6.265982
3.286022 3.220030 4.860039
0.439434 1.927279 1.643347
-0.769575 1.970715 1.515324
-1.353475 2.232572 1.561684
-0.177149 1.457122 0.352757
1.742359 2.219056 1.415462
1.714479 2.273209 1.459636
2.101809 2.277238 1.457033
0.482749 1.486693 -0.416996
-1.581145 2.371774 0.205621
-0.228923 2.106420 -0.144231
0.993596 2.196864 -0.381740
6.064326 3.382853 10.364168
1.510564 3.169955 7.029448
-0.401925 0.849567 0.290482
3.598984 2.834956 4.567781
-2.113892 4.327906 6.852803
-0.452048 1.103695 0.348815
-0.425666 1.080311 0.318472
-0.647204 1.980415 1.782524
1.856469 2.256518 2.144154
-0.064611 2.058014 0.453287
-1.107044 2.033113 0.300354
-0.946828 1.837563 0.135399
-0.658180 1.941861 0.181337
0.422902 1.520127 -0.283622
-1.992901 2.864374 0.998300
-2.159717 3.543697 1.153626
-0.321975 2.125398 -0.174643
-1.321629 2.394706 -0.049575
-1.278075 2.399793 -0.049193
-0.438377 0.816611 0.275928
0.092921 0.954769 0.492912
3.654627 3.020616 5.306939
3.654627 3.020616 5.306939
-0.339563 0.834722 0.054738
-0.257039 0.992319 0.269829
-0.900486 2.068752 1.410296
-0.727109 2.198314 1.458423
0.693469 2.198554 1.113325
-0.662706 2.304465 0.092354
0.014771 2.061697 -0.178909
0.274764 1.865423 -0.476874
-0.301671 0.765172 0.459999
