ply
format ascii 1.0
element vertex 1699
property float x
property float y
property float z
end_header
-1.444941 2.381246 0.150164
-1.219431 2.406462 -0.216485
-1.259847 2.390391 0.007693
-0.904471 1.793863 0.211381
-0.940701 1.838766 0.136414
-0.804506 1.850498 0.026166
-0.926617 1.838536 0.071576
-0.989694 1.897674 0.183686
-0.959198 1.901187 0.086402
0.875696 2.257873 -0.469612
-0.870290 1.997354 0.075984
-1.188237 2.131117 0.285714
-1.136456 2.144461 0.196560
-1.788596 2.333063 0.667081
-1.780209 2.330609 0.641968
-1.344561 2.369654 0.289893
-1.656398 2.357490 0.334248
-1.222435 2.398822 -0.120040
-0.907747 2.424177 -0.381640
-1.210204 2.403836 -0.193668
-0.635268 2.458601 -0.813039
-0.556036 2.464233 -0.868065
-0.387099 2.471379 -0.987294
-0.978816 2.434379 -0.555232
-0.831116 2.447535 -0.737111
-0.757334 2.454978 -0.753626
-0.614185 2.464241 -0.857108
-0.489985 2.474234 -1.011359
-0.454015 2.482213 -1.118911
-0.791716 2.505678 -0.857670
-1.054562 1.974951 0.142003
-1.031325 1.999812 0.113127
-1.095742 2.091854 0.134019
-0.205959 2.475832 -0.937817
-1.061629 2.416490 -0.303981
-1.112852 2.416892 -0.309472
-0.705084 2.456061 -0.745662
-0.362670 2.478315 -0.986573
-0.679914 2.463940 -0.881880
-0.394313 2.481572 -1.145086
-0.727044 2.464374 -0.901741
-0.742420 2.474437 -0.922156
-0.717918 2.464131 -0.919994
-0.717918 2.464131 -0.919994
-1.068307 1.984791 0.234153
-1.855594 2.342060 0.596062
-1.200180 2.413182 -0.285817
-0.686185 2.443971 -0.727585
-0.574731 2.462930 -0.879296
-0.696529 2.464159 -0.876121
-0.381460 1.435042 0.291356
-0.375482 1.427515 0.259541
-0.956955 1.867663 0.099513
-1.052710 1.982351 0.223284
-0.165337 2.478611 -0.926768
-1.481590 2.405722 0.070576
-0.927394 1.788468 0.205735
-1.034915 1.936122 0.163190
-1.036495 1.935734 0.160752
-0.974694 1.922291 0.110016
-0.511153 2.081478 -0.141661
-1.280379 2.390869 0.010190
-0.813345 1.771714 0.111539
-1.172063 2.398686 -0.086371
-1.091792 2.402103 -0.108627
-0.349027 2.471624 -0.998288
-0.196842 2.121264 -0.109976
-0.696468 2.486884 -0.975501
-0.602490 2.458104 -0.769024
-0.940150 1.828914 0.138301
-0.943532 1.837603 0.131363
-0.931129 1.854174 0.075940
-1.003340 1.954871 0.130612
-1.075101 2.094109 0.144258
-0.993618 2.067631 0.125887
-0.991982 2.068569 0.128270
-1.160938 2.104136 0.245347
-1.162153 2.127897 0.234058
-1.319379 2.385282 0.070620
-1.092519 2.401546 -0.109447
-0.179069 2.477627 -0.952029
-1.287319 2.397737 -0.074881
-1.272858 2.411837 -0.208683
-0.737435 2.447463 -0.650874
-0.401154 2.475669 -0.993778
-1.079903 2.430746 -0.472569
-1.049507 2.432756 -0.490576
-0.987263 2.445197 -0.578136
-0.987263 2.445197 -0.578136
-0.896554 2.456668 -0.696331
-0.534365 2.470840 -0.952299
-0.797746 2.464479 -0.836435
-0.727740 2.478235 -0.933699
-0.697142 2.468132 -0.934696
-0.467210 2.483503 -1.119825
-0.839049 1.722046 0.258297
-0.913478 1.794765 0.255517
-0.302266 2.115190 -0.124470
-0.125426 2.478009 -0.974793
-1.322646 2.397755 -0.082527
-1.379403 2.398889 -0.070537
-0.674339 2.452250 -0.719064
-0.517145 2.464478 -0.884332
-1.001138 2.436211 -0.543689
-0.909909 2.453858 -0.685825
-0.874146 2.458132 -0.728377
-0.772696 2.452559 -0.745659
-0.662479 2.460484 -0.861592
-0.419024 2.486204 -1.101898
-0.885828 2.466302 -0.713342
-0.788414 2.469964 -0.863535
-0.767819 2.471085 -0.868577
-0.955659 1.866146 0.152294
-1.037431 1.970165 0.221225
-1.134382 2.071456 0.322460
-1.134382 2.071456 0.322460
-1.697946 2.377274 0.351059
-1.124649 2.407313 -0.169980
-0.446118 2.470030 -0.986136
-0.851547 2.473975 -0.747891
-0.761330 2.468694 -0.881792
-0.774523 2.476024 -0.878814
-0.341905 1.425315 0.214946
-1.091737 2.037331 0.205553
-1.056026 2.069245 0.142256
-1.209368 2.183944 0.244522
-1.209368 2.183944 0.244522
-0.869406 2.448454 -0.719658
-0.845955 2.461065 -0.767140
-0.369390 1.400785 0.166044
-1.124308 2.060191 0.291881
-0.598557 2.455499 -0.737638
-0.615906 2.494828 -1.102583
-1.090768 2.038479 0.370897
-0.913346 2.443809 -0.572245
-1.037535 1.927851 0.141728
-0.250646 2.126947 -0.077120
-1.349375 2.410392 -0.121763
-0.732559 2.484916 -0.933172
-0.547238 2.462125 -0.825087
-0.203318 1.419223 0.339288
-0.203318 1.419223 0.339288
-0.914839 1.896876 0.419715
-0.902339 1.786393 0.107964
-0.909395 1.818433 0.063466
-0.857449 1.795215 0.059702
-0.275463 2.097999 -0.116157
-0.874529 1.760844 0.167574
-1.100162 2.051359 0.217741
-1.088509 2.063981 0.205172
0.355347 2.455638 -0.734074
-1.496719 2.352749 0.497067
-0.382319 1.435289 0.291368
-0.697318 1.710089 0.310546
-0.804717 1.770252 0.114459
-0.987283 1.916714 0.109714
-0.986196 1.952335 0.084069
-1.017287 1.966250 0.128179
-0.304456 1.050311 0.268793
-0.962387 1.870519 0.169346
-0.977416 2.006268 0.102683
-0.770203 1.725129 0.150305
-0.158080 1.133164 0.362670
-1.117296 2.043628 0.224668
-0.054100 2.446177 -0.552574
-0.464945 0.811479 0.263128
-0.378397 0.854989 0.301388
-0.385336 0.867635 0.297185
-0.699704 1.685046 0.329615
-0.823074 1.801435 0.110522
0.035158 2.040777 -0.186174
-0.797811 1.817215 0.041961
-0.233828 2.103005 -0.165063
-0.998944 1.912776 0.143148
-1.082785 2.038010 0.185592
-0.958198 2.045324 0.106231
-1.115891 2.074418 0.206242
-1.075297 2.085163 0.148635
-1.164757 2.143961 0.209105
-0.103703 0.941387 0.454845
0.029150 1.113595 0.428008
0.029150 1.113595 0.428008
-0.302152 1.389422 0.145850
-0.372761 2.132372 -0.076306
-1.051935 1.980071 0.225413
-1.090020 2.077073 0.225425
0.442742 2.455168 -0.515699
-0.443330 0.849255 0.302206
-0.426359 0.839311 0.299136
-0.407025 0.874745 0.317652
-0.006411 1.162809 0.424420
-0.795117 1.727422 0.118985
-0.949687 1.876689 0.214135
-0.951377 1.874235 0.211569
-0.948193 1.854034 0.195874
-0.994513 1.905306 0.276888
-1.132436 2.071486 0.331253
-1.168749 2.119377 0.305491
-0.394861 0.857357 0.307662
-0.343941 0.985331 0.200845
-0.805050 1.773335 0.115910
-0.924233 1.824427 0.155645
-0.908880 1.995442 0.072100
-0.333155 1.012438 0.237886
-0.333155 1.012438 0.237886
0.572972 1.477598 -0.444145
-0.788975 1.921580 0.030052
-1.047888 1.971547 0.246159
-1.047888 1.971547 0.246159
-1.041266 1.930821 0.141935
-1.113782 2.109423 0.401331
-1.161224 2.092724 0.278173
-0.389894 0.822841 0.296711
-0.831938 1.936967 0.048901
-0.987652 1.944718 0.094322
-0.428993 0.677508 0.204982
-0.781443 1.708596 0.233148
-0.891865 1.788764 0.357096
-0.909428 1.769534 0.268952
-0.898201 1.791882 0.113283
-1.014599 1.971220 0.393720
-1.017559 1.912843 0.260189
-0.992314 1.927811 0.139018
-0.864167 1.975447 0.081677
-1.095430 2.052874 0.360003
-0.386497 0.839817 0.292309
-0.212439 1.414834 0.314536
-0.353057 1.711602 0.389491
-0.844301 1.748747 0.293101
-0.761541 1.712652 0.165789
-0.916540 1.783200 0.274925
-0.847685 1.743044 0.125546
0.056755 2.042539 -0.176542
-0.006917 2.049042 -0.179423
-0.735876 1.875103 0.039262
-0.200858 2.107308 -0.114071
-0.224561 2.106538 -0.143144
-1.051839 1.980248 0.225524
-0.345495 2.115536 -0.081075
-1.088119 2.063256 0.203845
-0.476468 0.815772 0.268078
-0.730712 1.727323 0.271170
0.896688 2.251187 -0.484061
-0.900004 1.792541 0.171019
-0.866366 1.775050 0.139025
0.155591 2.446502 -0.350017
0.365004 2.452618 -0.496493
0.067639 1.513588 -0.267148
-0.647528 1.713944 0.261274
-0.776047 1.780501 0.060633
-0.997103 1.898980 0.272229
-1.076294 2.057259 0.387132
-0.478038 0.788161 0.247904
-0.235488 0.950952 0.676945
-0.170502 1.730620 0.378031
-1.012683 1.973579 0.135672
-1.125486 2.065166 0.289175
-1.128774 2.059910 0.284443
0.422437 2.448988 -0.516491
-0.804866 1.923084 0.045163
-0.661946 1.726552 0.218042
-0.689615 1.710776 0.239076
-0.876436 2.022504 0.075704
-0.428295 0.713508 0.219987
-0.217637 0.869344 0.301327
2.248417 2.090312 0.451789
2.319299 2.148981 0.395880
2.319299 2.148981 0.395880
-0.322257 1.394443 0.135639
-0.787528 1.721179 0.235497
-0.854865 1.757407 0.260374
-0.664993 1.790928 0.160590
-0.934804 1.815231 0.161523
-0.021256 2.043390 -0.204180
-0.110923 0.950247 0.458624
-0.288714 1.378836 0.159397
0.510628 1.475140 -0.467410
-0.842395 1.722342 0.132530
-0.903001 1.799254 0.272939
-0.833393 1.763542 0.123551
-0.808538 1.818316 0.027732
-0.808538 1.818316 0.027732
-1.035740 1.922953 0.226442
-0.273385 2.127912 -0.101609
-0.438673 0.829574 0.283954
-0.414026 1.071448 0.306778
-0.414026 1.071448 0.306778
-0.000319 1.165904 0.428700
-0.820632 1.747424 0.119863
-0.955833 1.892706 0.108694
-0.772509 1.716169 0.133609
0.326873 2.445754 -0.481218
-0.947820 1.903856 0.079090
-0.611256 1.730920 0.307963
-0.812860 1.850673 0.037282
0.118727 0.913732 0.480592
-0.271284 0.927858 0.250808
2.250595 2.128668 0.434500
-0.675225 1.722892 0.197279
-0.916901 1.782284 0.274015
0.910881 2.237256 -0.593538
2.270981 2.247481 0.444929
0.539899 1.479000 -0.478377
-0.781797 1.710637 0.304492
-0.775383 1.728919 0.282113
-0.928924 1.803766 0.275418
2.250007 2.218732 0.453368
-0.933722 1.927633 0.371781
-0.738846 1.702734 0.341387
-0.861780 1.752528 0.260230
0.874991 2.284766 -0.590183
0.875782 2.284806 -0.589614
-0.945364 1.932625 0.412704
-0.914085 1.783273 0.132031
-1.006367 1.964528 0.341311
-0.958852 1.886764 0.104095
-0.681523 1.787534 0.156295
-0.997258 1.927800 0.343955
-0.991006 1.941174 0.353846
0.046164 0.923569 0.606032
-0.235605 0.843360 0.259330
0.954910 2.233478 -0.595967
0.912369 2.236536 -0.593677
0.866547 2.254565 -0.609346
-1.016540 1.968368 0.391844
2.256529 2.088444 0.430482
0.134007 1.451973 -0.202345
0.920469 2.232774 -0.573598
-0.908808 1.799032 0.325186
-0.719281 1.737709 0.150613
-0.229952 2.100143 -0.145270
-0.363361 1.404811 0.192911
-0.418703 1.716789 0.559785
-0.633592 1.747558 0.217566
-0.789628 1.730803 0.227021
-0.816467 1.795900 0.106782
1.002308 2.235333 -0.546461
2.254699 2.225645 0.431853
1.003121 2.241158 -0.510761
0.930843 2.248376 -0.498228
-0.345107 1.401927 0.150020
1.074360 2.381870 0.551467
-0.721929 1.681199 0.372956
-0.721929 1.681199 0.372956
1.045232 2.273063 -0.565282
0.929818 2.228939 -0.594770
-0.778979 1.722721 0.161862
-0.713307 1.733679 0.183830
-0.847116 1.744781 0.126471
-1.009607 1.919763 0.298645
-0.356568 0.673068 0.308999
-0.375321 0.685419 0.254981
2.275787 2.194306 0.420752
-0.252572 1.441344 0.280640
-0.234957 1.470564 0.279249
0.565018 1.468557 -0.468112
1.050789 2.383945 0.537879
-0.724222 1.726794 0.220446
0.899874 2.277860 -0.622602
-0.879372 1.776561 0.356781
-0.989531 1.904746 0.298532
-0.945834 1.820256 0.168744
-0.208451 0.989870 0.624716
2.164403 2.224276 -0.052502
-0.256887 1.465163 0.301305
-0.267124 1.462061 0.273926
0.074115 1.601089 -0.238245
-0.657810 1.712686 0.259836
0.959890 2.230093 -0.568571
-0.947857 1.926596 0.408882
-0.879839 1.766658 0.115587
-0.967788 1.878272 0.259513
-0.902261 1.896636 0.388087
-0.939585 1.897010 0.407145
-0.777540 1.850919 0.030231
-0.409748 1.576652 0.595070
-0.407515 1.579341 0.596737
-0.974509 1.896265 0.324774
-0.969937 1.877267 0.241275
-0.821037 1.741842 0.135132
-0.822961 1.908019 0.484963
2.281020 2.174188 0.424450
2.285511 2.180513 0.442016
-0.178724 0.839622 0.561673
-0.225253 0.856551 0.280654
-0.281799 0.971166 0.249669
-0.280234 0.971478 0.250309
1.813235 2.123646 0.136596
-0.367512 1.398474 0.141663
-0.832641 1.782626 0.358265
-0.714746 1.745129 0.178104
-0.886393 1.777526 0.141426
-0.217782 0.868261 0.301425
0.938780 2.247846 -0.620556
-0.786279 1.746877 0.111236
-0.942040 1.903910 0.388576
-0.941796 1.918489 0.381190
-0.941335 1.918924 0.381374
-0.638269 1.738737 0.253153
-0.326433 2.117036 -0.061205
-0.365188 0.681126 0.301023
-0.387327 0.698632 0.255916
2.334409 2.109757 0.678377
-0.171510 0.758920 0.561111
-0.925146 1.986310 0.517118
2.255556 2.226306 0.430997
-0.840440 1.810252 0.057753
-0.873250 1.787168 0.106121
-0.303976 1.376528 0.101222
-0.377395 0.708437 0.324009
-0.307037 1.373467 0.099773
0.842203 2.286660 -0.607160
-0.913230 1.776712 0.283204
-0.279134 0.938094 0.234918
1.516809 2.317686 0.591871
1.380226 2.313071 0.510192
-0.352050 1.394922 0.129386
-0.891100 1.889063 0.399091
-0.940630 1.904241 0.388664
-0.937816 1.881285 0.330210
-0.840819 1.871522 0.497498
-0.882902 1.826753 0.414428
1.712303 2.172391 0.063694
2.250097 2.068962 0.456789
2.250097 2.068962 0.456789
-0.385323 0.941260 0.149979
-0.286046 1.379661 0.139070
0.118672 0.913750 0.480647
-0.348085 0.875175 0.109290
1.186356 2.396002 0.376183
-0.404762 1.575826 0.609460
-0.721669 1.734172 0.172492
-0.270731 0.945485 0.257985
2.292390 2.207527 -0.168014
-0.905170 1.798439 0.265888
-0.907671 1.766010 0.241910
-0.948357 1.863031 0.295248
-0.389624 0.732523 0.263189
-0.209295 0.988809 0.624507
-0.222646 0.865073 0.297847
2.545197 2.246634 -0.200173
1.869260 2.146783 -0.278253
-0.897145 1.815826 0.387733
-0.962666 1.968938 0.483056
0.965829 1.965216 -0.654094
-0.720337 1.703667 0.253565
-0.882904 1.790225 0.364201
-0.851023 1.742062 0.151490
-0.253846 0.861693 0.264552
2.058938 2.382276 0.645516
2.886722 2.214578 0.122219
0.873189 2.280862 -0.617456
2.318033 2.202620 -0.402252
0.546135 1.481565 -0.478430
-0.298749 1.375688 0.113684
-0.391383 1.571035 0.607049
-0.942652 1.815333 0.187898
-0.951903 1.834385 0.103681
-0.300468 1.453423 0.284716
-0.714673 1.681740 0.340030
-0.873607 1.865549 0.418685
-0.896656 1.809345 0.229278
-0.975852 1.918551 0.333269
0.897452 1.970828 -0.743340
-0.657928 1.685952 0.370534
-0.861001 1.799900 0.415146
-0.880971 1.866873 0.389700
-0.937895 1.828294 0.316190
-0.813687 1.796829 0.107907
-0.800363 1.822034 0.040291
-0.958218 1.907074 0.394706
-0.172668 0.793220 0.535982
-0.747935 1.727579 0.243562
-0.901334 1.894398 0.389125
-0.153010 0.914471 0.492581
-0.367670 0.991076 0.220448
-0.809812 1.931749 0.522162
-0.865670 1.747670 0.280855
-0.897901 1.793007 0.173862
-0.733071 1.855499 0.037282
-0.950214 1.847983 0.230946
-0.381456 0.799779 0.293533
-0.741830 1.706842 0.349616
-0.827118 1.738308 0.131515
-0.375755 0.662210 0.222908
-0.375755 0.662210 0.222908
0.898260 1.986312 -0.734685
-0.730412 1.713233 0.262474
-0.699666 1.715659 0.185404
0.427737 2.474248 -0.825027
-0.926837 1.870979 0.319156
-0.940957 1.886098 0.296991
0.331453 2.479719 -0.904644
2.291849 2.207142 -0.168148
-0.712932 1.683703 0.340250
-0.859650 1.895874 0.473137
-0.823338 1.752665 0.118947
-0.902535 1.874492 0.366690
-0.971328 1.871483 0.253765
-1.019893 1.957411 0.251024
-0.221988 0.889237 0.300420
-0.717163 1.705132 0.208651
-0.717163 1.705132 0.208651
-1.003088 1.930027 0.364858
-0.756867 1.706846 0.318381
-0.789149 1.712597 0.302908
-0.829020 1.780711 0.406790
-0.959157 1.905869 0.340369
-0.886692 1.773813 0.099573
-0.312032 2.123495 -0.140613
-0.385504 1.724802 0.471269
-0.897599 1.752442 0.239531
-0.306903 0.797211 0.103581
0.284103 2.456211 -0.651864
-0.264874 1.023374 0.286341
-0.285027 1.027079 0.268467
-0.217999 1.427059 0.341221
-0.897683 1.758586 0.298176
-0.977778 1.916291 0.332310
-0.988842 1.906047 0.299744
-0.957886 1.853560 0.141409
-1.013816 1.961653 0.305468
-0.989927 1.928486 0.166980
-0.992272 1.920209 0.140924
-0.911376 1.993578 0.069317
-1.088507 2.065082 0.374398
-1.044979 1.986132 0.120222
-0.341811 0.990800 0.218236
-0.341811 0.990800 0.218236
-0.215081 1.413127 0.350355
-0.845181 1.732657 0.136202
-0.792941 1.728967 0.082234
-1.018787 1.941988 0.270525
-1.039161 1.956342 0.261573
-0.995859 1.898656 0.152122
0.071324 2.454446 -0.728175
0.352365 2.486415 -1.056817
-1.031481 1.990971 0.191322
-1.016614 1.970518 0.137183
-0.940426 2.049172 0.100867
-0.107134 2.437568 -0.738881
-0.211037 1.414065 0.331782
-0.200492 1.416889 0.334649
-0.721438 1.685402 0.373629
-0.729250 1.686110 0.323670
-0.876384 1.790566 0.380366
-0.779897 1.844985 0.030546
-0.517474 2.108334 -0.225863
-1.039055 2.055148 0.494572
-1.026846 1.928088 0.201591
-1.037212 1.933119 0.165121
-1.037212 1.933119 0.165121
-1.001453 1.932804 0.146148
-1.091461 2.089433 0.427640
-1.046199 1.972350 0.170813
-1.042675 1.984609 0.155452
0.203840 2.496385 -1.159615
-0.296388 0.780652 0.109308
-0.795718 1.720307 0.220155
-0.764118 1.727241 0.079441
-0.981485 1.882890 0.276035
-0.995611 1.901987 0.223464
-0.995611 1.901987 0.223464
-1.005839 1.921996 0.190453
-0.816901 1.738458 0.285658
-0.766552 1.719433 0.276731
-0.953827 1.861626 0.149790
-0.955256 1.854990 0.149296
-1.015339 1.928106 0.225636
-1.074484 1.995050 0.264889
-1.027643 1.983427 0.200110
-0.922520 1.902652 0.078814
-1.064862 1.959468 0.233670
-1.057451 1.967526 0.237624
-1.066884 2.009039 0.202606
-1.030120 1.936261 0.150199
-0.906256 1.790959 0.119303
-0.829725 1.864075 0.035730
-0.979644 2.051507 0.533741
-0.220139 0.949565 0.322291
-0.794812 1.739382 0.369415
-0.843156 1.790679 0.046918
-0.344428 2.147158 -0.400827
-1.025293 2.061313 0.479925
-0.992475 1.944482 0.370152
-0.789509 1.751860 0.112285
-0.377440 0.686762 0.268322
-0.388089 0.775962 0.272018
-0.265994 1.023136 0.286136
-0.293158 1.370746 0.108564
-0.293429 1.370382 0.108425
-0.722209 1.713080 0.161308
-0.883242 1.759428 0.129346
-1.013586 1.912161 0.253963
0.096211 2.467970 -0.818257
-1.111934 2.086995 0.212382
-1.084590 2.043497 0.199042
-0.139917 2.475473 -1.002553
-0.834337 1.777227 0.115210
-0.783706 1.781231 0.049899
-0.782044 1.804804 0.043298
-0.967561 1.930559 0.444989
-0.941475 1.830341 0.142747
-0.086019 2.472476 -0.938787
0.026657 2.493886 -1.103821
-1.140124 2.090452 0.277724
-0.177896 0.748364 0.578011
-0.151505 0.925077 0.464656
-0.299554 1.388886 0.149074
0.896795 2.266265 -0.636052
-0.803629 1.787095 0.116108
-1.095885 2.086034 0.442672
-1.087596 2.061078 0.367002
-1.070700 2.008382 0.236458
-1.152961 2.096717 0.286343
-1.122058 2.073083 0.190203
-1.100416 2.084879 0.149804
-0.184500 2.467456 -0.776109
-1.116169 2.093735 0.163786
-0.214560 2.482116 -1.105165
-0.907852 1.884457 0.386057
-0.931930 1.832343 0.317824
-1.062732 2.025458 0.387361
-1.107349 2.049757 0.222683
-1.099318 2.047665 0.186209
-0.063452 2.488066 -1.046156
-1.012594 2.102260 0.564065
-1.033826 2.066490 0.521676
-1.070189 2.003865 0.268442
-1.011344 2.019681 0.108472
-1.084904 2.039305 0.212519
-1.091496 2.036489 0.208524
-1.146643 2.081757 0.199773
2.883445 2.161902 -0.820651
0.932476 2.238800 -0.582615
-0.956978 1.931820 0.383774
-0.963348 1.884658 0.282733
-0.994184 1.927824 0.343687
-1.101095 2.097993 0.414329
-1.174808 2.118387 0.293494
-0.258806 2.102322 -0.091457
-0.974616 1.888131 0.140275
-0.771923 1.785065 0.105524
-0.045437 2.468348 -0.840021
0.096052 2.477379 -0.922790
-0.903548 1.770380 0.243926
-1.073928 2.038811 0.397092
-1.019873 1.983296 0.211934
-1.037800 1.956540 0.162338
0.070759 2.496707 -1.182669
0.019569 2.013477 -0.145785
-0.989180 1.896026 0.260795
-1.013585 1.963673 0.336628
-0.304308 2.466956 -0.861834
-1.095442 2.200753 0.143449
-1.090541 2.200923 0.128117
2.908486 2.226199 0.125189
-0.950523 1.953039 0.478178
-1.046814 2.021661 0.424342
-0.283831 1.453275 0.270589
-1.006515 1.957678 0.372399
-1.087049 2.021615 0.243771
-0.969513 1.875491 0.235345
-1.011883 1.956697 0.343873
-1.057825 2.006504 0.175268
-1.140487 2.094762 0.328369
-0.671591 1.705994 0.279696
-0.987339 1.904244 0.200766
-1.038807 2.015471 0.403142
-1.138588 2.075850 0.353646
-0.872777 1.757492 0.246668
-0.999808 1.909153 0.115544
-1.130744 2.109531 0.168881
-1.077037 2.038324 0.269177
-0.404722 1.708081 0.556832
-0.832929 1.882676 0.504548
-0.929710 1.891653 0.341393
-0.946755 1.828674 0.110981
-0.978407 1.887768 0.254476
-0.573183 2.118101 -0.240129
-1.074667 2.038978 0.396554
-1.076735 1.990749 0.277240
-1.059952 2.008659 0.227697
-1.115020 2.102940 0.407650
-1.090430 2.060583 0.200754
-0.289693 2.477417 -0.993272
-0.254391 2.483386 -1.099959
-0.579335 2.458764 -0.876227
-1.237755 2.235964 0.221771
-1.091026 2.402021 -0.109265
-1.091026 2.402021 -0.109265
-0.896083 2.437374 -0.588572
-0.805217 2.455254 -0.822339
-1.175661 2.422695 -0.332799
-0.898665 1.807095 0.099122
-0.960308 1.866210 0.120026
-0.955437 2.009707 0.502943
-0.980236 1.898063 0.214168
-1.030863 1.948013 0.232605
-1.030227 1.947449 0.142215
-0.085249 2.473350 -0.938791
-1.069137 2.110754 0.490432
-1.131528 2.069970 0.330061
-1.084372 2.025931 0.219665
-0.215383 2.472136 -0.940127
-1.130109 2.099212 0.381944
-1.166284 2.111427 0.318429
-1.123117 2.094436 0.184232
-1.097764 2.087044 0.150089
-0.252215 2.479037 -1.113135
-0.418476 2.490182 -1.105678
-0.515961 2.467961 -1.011800
-0.973531 2.403593 -0.084925
-0.706066 2.459980 -0.990969
-1.212456 2.396029 -0.066678
-1.113638 2.404460 -0.153155
-1.109654 2.417651 -0.341060
-1.055918 2.434664 -0.484348
-0.967507 2.437318 -0.543661
-0.999056 2.444484 -0.558217
-1.436356 2.366427 0.354930
-1.226827 2.399432 -0.119123
-1.258428 2.402126 -0.089685
-1.261645 2.398702 -0.089747
-1.264819 2.399867 -0.102539
0.966888 1.964314 -0.651448
0.848978 2.281280 -0.576519
-0.936462 1.840259 0.288293
-0.957098 1.866382 0.230050
-0.501610 2.107181 -0.141875
-0.966200 2.022607 0.493525
-1.020825 1.940636 0.270071
-1.059882 1.989294 0.331352
-1.064549 2.073455 0.113469
-1.153990 2.113411 0.340172
-0.656616 2.444785 -0.628763
-0.653224 2.447178 -0.627550
-0.691739 2.444235 -0.606560
-0.684086 2.445883 -0.626307
-0.988849 2.444525 -0.603381
-0.877809 2.472430 -0.725948
-1.233441 2.399849 -0.092282
-1.205017 2.403338 -0.136453
-0.830520 1.754791 0.381586
-0.988014 1.974559 0.431813
-0.958960 1.906011 0.103644
-0.964561 1.901529 0.102209
-1.009435 1.954283 0.371602
-0.107616 2.485449 -1.031632
-0.607450 2.468283 -0.877469
-0.671988 2.465877 -0.996133
-0.897073 2.448450 -0.690041
-0.726723 1.721691 0.353859
-0.912004 1.880914 0.386627
-1.212168 2.183307 0.238179
-0.810144 2.477560 -0.831270
-0.695343 1.944369 0.658900
-0.664197 1.714772 0.259552
-0.737604 1.714681 0.165137
-0.837707 1.760262 0.379426
-0.851423 1.733136 0.166832
-0.861018 1.755711 0.259353
-0.820120 1.770638 0.117512
-0.934498 1.825411 0.154545
-0.934256 1.825483 0.154575
-0.932461 1.817319 0.100854
-0.915104 1.888071 0.346619
-0.960475 1.862282 0.174522
0.168019 2.460454 -0.741301
-1.035258 2.011769 0.420198
-1.025808 1.976552 0.364534
-1.051936 1.984277 0.268411
-1.078788 2.078540 0.448266
-1.061849 2.006492 0.226944
-1.016829 1.997638 0.108889
-1.095580 2.055381 0.217667
-1.088978 2.060901 0.201003
-0.180241 2.478799 -1.023735
-1.184227 2.153663 0.258433
-0.360441 2.479451 -0.947768
-0.418642 2.471833 -0.959483
-0.412123 2.479549 -1.032485
-0.585433 2.460484 -0.690781
-0.587247 2.467382 -0.855386
-0.580473 2.468972 -1.001792
-1.342993 2.346647 0.602892
-1.092165 2.403292 -0.132379
-0.962807 2.418629 -0.277834
-0.973088 2.417346 -0.287461
-0.982112 2.417608 -0.300769
-0.885544 2.436344 -0.571250
-0.798168 2.447140 -0.680913
-1.375422 2.360271 0.435511
-1.381676 2.360876 0.415976
-1.341439 2.371928 0.271950
-1.333349 2.369446 0.232316
-1.215020 2.400378 -0.051277
-1.216002 2.399201 -0.051612
-1.115135 2.402051 -0.123437
-1.114644 2.398981 -0.170579
-1.102067 2.419043 -0.352074
-1.099772 2.424039 -0.379023
-1.016314 2.427604 -0.448432
-0.946223 2.435879 -0.621339
-0.950382 2.446218 -0.626729
-1.481445 2.351248 0.498066
-1.460937 2.364456 0.327380
-1.315760 2.388618 0.071712
-1.268897 2.395224 -0.030695
-1.306109 2.392759 -0.040216
-1.261316 2.391965 -0.050807
-1.270436 2.399559 -0.125350
-1.236694 2.412018 -0.140797
-1.192713 2.410695 -0.229173
-1.232411 2.418236 -0.250564
-1.221988 2.417800 -0.266076
-1.176455 2.418915 -0.315476
-1.106596 2.426560 -0.408256
-1.460214 2.377620 0.173084
-1.383960 2.399375 -0.036887
-1.327267 2.399042 -0.069169
-1.588673 2.370246 0.231388
-1.564697 2.377492 0.173708
-1.518999 2.373526 0.180557
-1.526174 2.379333 0.145788
-1.539499 2.381807 0.150902
-1.470771 2.381433 0.105153
-1.470508 2.381830 0.105352
-1.522853 2.385660 0.127090
-1.510791 2.405896 0.088999
-1.668108 2.368704 0.315447
-1.627405 2.371871 0.263012
-1.593671 2.380295 0.226406
-1.787384 2.359957 0.481337
-1.770079 2.366039 0.447700
-0.804987 1.730897 0.101850
-0.923579 1.829224 0.287288
-0.784590 1.868341 0.032681
-0.801162 1.877139 0.030982
-0.960714 1.865313 0.118588
-0.927697 2.017606 0.544800
0.209347 2.467463 -0.688997
0.163334 2.469179 -0.791866
-1.017831 1.974812 0.199494
-1.104807 2.041066 0.305427
-1.131635 2.056712 0.285071
-0.100970 2.485490 -0.929500
-0.205528 2.478732 -0.941079
-1.132065 2.151675 0.178361
-1.213419 2.183552 0.248007
-0.522340 2.475013 -1.000634
-0.522282 2.475307 -1.000871
-0.532203 2.476806 -1.044002
-0.973155 2.403975 -0.085254
-0.716229 2.449042 -0.693107
-0.654430 2.461636 -1.029729
-0.958314 2.418440 -0.304162
-0.972578 2.417741 -0.321060
-0.917265 2.423516 -0.372994
-0.818194 2.459452 -0.732791
-0.868705 2.446153 -0.718712
-0.785412 2.472794 -0.852107
-1.330796 2.368518 0.299087
-1.328645 2.370797 0.299206
-1.213083 2.396449 -0.067210
-1.159212 2.404674 -0.109203
-1.051753 2.417352 -0.300357
-1.113904 2.416258 -0.309817
-1.110444 2.418826 -0.309080
-1.045234 2.429292 -0.451877
-1.043813 2.430293 -0.452535
-1.026871 2.432209 -0.512365
-0.991444 2.431105 -0.564439
-1.522953 2.341653 0.594404
-1.503818 2.355090 0.452978
-1.337011 2.375249 0.089705
-1.336696 2.386478 0.112755
-1.206798 2.406510 -0.173202
-1.180168 2.408011 -0.197984
-1.135443 2.415854 -0.319289
-1.529656 2.365875 0.308028
-1.495453 2.375586 0.206106
-1.495568 2.375605 0.206035
-1.323971 2.396116 -0.059000
-1.612682 2.366451 0.293789
-1.575257 2.378560 0.193230
-1.498070 2.373544 0.173215
-1.445539 2.394534 0.029490
-1.459206 2.388013 0.015875
-1.433914 2.404213 -0.001427
-1.729308 2.357173 0.464152
-1.706669 2.357890 0.402007
-1.683223 2.365986 0.334193
-1.630646 2.364468 0.317374
-1.623587 2.363530 0.268975
-1.614812 2.373248 0.246402
-1.801695 2.345124 0.540200
-0.814264 1.732979 0.262822
-0.842350 1.779491 0.098750
-0.900332 1.796263 0.176575
-0.952656 1.866077 0.248870
-1.070253 1.987140 0.231228
-1.096262 2.071470 0.211768
-1.151739 2.097481 0.286310
-0.546061 2.460752 -0.823594
-0.781796 2.452934 -0.741719
-0.659023 2.475862 -1.026205
-1.501233 2.353866 0.493574
-1.205664 2.402691 -0.136798
-1.128041 2.425392 -0.364933
-1.090557 2.448947 -0.452168
-1.478705 2.379679 0.121284
-1.500122 2.388751 0.097645
-1.454668 2.384956 0.066350
-1.693343 2.377811 0.343836
-1.611717 2.386804 0.233542
-0.831008 1.748727 0.265163
-0.856471 1.772766 0.115456
-0.896450 1.880515 0.437610
-0.922099 1.843601 0.210669
-1.073180 2.046671 0.362492
-1.082916 2.024983 0.244460
-1.106081 2.070217 0.309883
-0.233190 2.471591 -0.904515
-1.050349 2.405972 -0.179408
-1.345727 2.375297 0.205306
-1.193838 2.413087 -0.263956
-1.158881 2.449722 -0.355299
-1.503055 2.374093 0.302073
-1.341519 2.422300 -0.123131
-1.540605 2.374784 0.174854
-1.542219 2.373098 0.174477
-1.679705 2.380624 0.319525
-0.658072 1.954984 0.656954
-1.031765 2.068345 0.522455
-1.314884 2.434603 -0.154488
-1.643642 2.369190 0.295912
-1.661591 2.382764 0.295282
-0.918082 2.829370 -0.732322
-0.702473 2.487533 -0.896192
-1.484636 2.375643 0.242635
-1.487859 2.373233 0.241207
-1.473751 2.379876 0.177889
0.045705 2.041851 -0.174909
-1.716119 2.361240 0.424307
0.902897 2.227467 -0.575200
0.875387 2.296044 -0.614529
-0.827977 1.772078 0.371761
-0.842844 1.756844 0.244554
-0.916634 1.807571 0.317781
-0.926607 1.871562 0.319703
-0.928159 1.887285 0.071787
0.166746 2.465949 -0.805144
-1.012237 2.039085 0.488068
-1.029822 1.983454 0.382839
-1.046878 2.087205 0.524125
-1.079895 2.053118 0.348928
-0.198239 2.460985 -0.711102
-1.053840 2.108575 0.515052
-1.098724 2.085987 0.150341
-0.165664 2.482387 -0.988385
-1.129472 2.090886 0.196422
-0.396909 2.459807 -0.873994
-0.678203 2.452373 -0.723785
-0.592444 2.476941 -1.101491
-0.538198 2.481364 -1.179428
-1.368293 2.369857 0.277974
-1.164004 2.419787 -0.328084
-1.345891 2.384123 0.091254
-1.487179 2.366169 0.275750
-1.533743 2.375655 0.183260
-1.771998 2.339060 0.617834
-1.751887 2.337447 0.581021
-1.734988 2.366113 0.396109
-1.688704 2.373895 0.330588
-1.833555 2.340690 0.586439
-0.366996 1.438165 0.289613
2.074427 2.388911 0.653606
-0.699906 1.706933 0.312609
-0.907494 1.799650 0.113107
-0.930196 1.900598 0.373921
-0.979114 1.899603 0.263686
-1.013841 2.029335 0.454956
-1.075531 2.117333 0.501170
-0.680158 2.448625 -0.625894
-0.675078 2.463617 -0.884350
-0.876805 2.442561 -0.598993
-1.163376 2.412833 -0.215813
-1.331476 2.380323 0.092116
-1.340905 2.390896 -0.000836
-1.322227 2.391787 -0.008220
-1.529551 2.360742 0.451298
-1.431210 2.378909 0.156612
-1.576082 2.383604 0.179237
-1.779258 2.339303 0.678832
-1.786033 2.343961 0.545088
-1.732451 2.354058 0.462155
-1.708223 2.361098 0.369817
-1.671919 2.360256 0.345118
-0.816563 1.709679 0.161221
-0.846522 1.942894 0.530210
-0.991828 1.930724 0.216892
0.098115 2.460088 -0.709233
-1.011923 1.962639 0.321059
-0.196270 2.460159 -0.774520
-1.133783 2.085584 0.346442
-1.256908 2.357740 0.486251
-1.029392 2.439434 -0.525715
-1.487121 2.379886 0.085662
-1.405829 2.389082 0.000242
-1.583617 2.389123 0.188646
-1.760726 2.350482 0.499923
-1.700480 2.362129 0.353871
-1.838370 2.345517 0.559565
-1.807576 2.347326 0.521404
-0.869459 1.817151 0.406871
-0.913680 1.819078 0.270879
-0.997256 1.904875 0.230972
-1.068668 2.051618 0.362087
-1.105252 2.051765 0.222597
-1.079792 2.431704 -0.411799
-1.768256 2.339278 0.655772
-1.684236 2.367300 0.384533
-1.655378 2.360049 0.339648
-1.198976 2.156289 0.271407
-1.051063 2.070387 0.132174
-1.530545 2.388988 0.119811
-1.238588 2.413558 -0.250611
-1.318809 2.412982 -0.161925
0.908765 2.247019 -0.618871
-0.242581 2.096140 -0.137096
-0.891589 1.882663 0.395529
-1.015347 2.079118 0.112936
-1.125340 2.091234 0.165462
-0.871132 2.435306 -0.530411
-0.747812 2.469640 -0.908486
-0.980842 2.438942 -0.564260
-1.333404 2.373583 0.220661
-1.142772 2.422297 -0.353220
-1.185547 2.431930 -0.327897
-1.510643 2.350342 0.450492
-1.420229 2.385747 0.039178
-1.433791 2.387646 0.030949
-1.803752 2.338953 0.606423
-1.805272 2.352819 0.493464
-1.920520 2.336341 0.667771
-0.905720 1.818823 0.350756
-1.328036 2.345418 0.613983
-1.214993 2.408084 -0.182935
-1.145582 2.411880 -0.257023
-1.930132 2.333399 0.677354
-0.316254 2.111038 -0.085219
-1.041972 1.949317 0.272119
-1.034994 1.952322 0.273767
-1.092502 2.204643 0.145599
-1.277743 2.393483 0.035581
-1.446951 2.377462 0.165370
-1.485830 2.381567 0.089693
-1.482671 2.403081 0.059404
-1.724000 2.352307 0.449338
-1.787535 2.348857 0.581737
-0.994165 1.907004 0.280512
0.106700 2.460047 -0.738562
-1.541747 2.345019 0.573302
-1.563011 2.393024 0.154753
-1.496220 2.393052 0.121760
-1.500959 2.402089 0.070605
0.037131 2.046605 -0.173563
-1.067057 2.193109 0.163022
-0.899037 1.895048 0.466459
-1.464499 2.401977 0.143773
-1.478986 2.388455 0.070105
-0.704880 1.726919 0.220792
-0.856594 1.751333 0.240741
-0.915350 1.809576 0.114446
-0.233268 2.100178 -0.064708
-0.876774 1.868549 0.440015
-0.951904 1.852613 0.197038
-0.957732 2.012719 0.488556
-0.957732 2.012719 0.488556
-0.991768 1.945573 0.357348
0.068804 2.458598 -0.728243
-1.176104 2.128895 0.328280
-1.211933 2.167205 0.251280
-0.896091 2.445537 -0.686771
-1.204146 2.422524 -0.289405
-1.068201 2.435910 -0.471223
-1.311623 2.399903 -0.093099
-1.452212 2.378935 0.154139
-1.460933 2.382693 0.158889
-1.372256 2.402683 -0.070066
-0.829431 2.787187 -0.851033
-1.544920 2.386269 0.142658
-1.761688 2.336061 0.639789
-0.922607 2.851754 -0.737073
-1.828430 2.354288 0.531172
-1.921704 2.348838 0.667826
-1.871560 2.354506 0.579379
-0.767940 1.717886 0.241131
-0.898677 1.821553 0.353307
-0.912194 1.808203 0.283191
-0.938610 1.838805 0.115307
-1.001574 1.883644 0.234514
-0.965000 1.897846 0.086098
-0.959626 1.927348 0.086268
-0.514835 2.075807 -0.143473
-1.042274 1.958772 0.286096
0.191891 2.476515 -0.829530
-1.069989 2.058689 0.384692
-0.883171 2.437462 -0.547412
-0.881322 2.464620 -0.723249
-1.191264 2.347031 0.216017
-1.225192 2.400179 -0.119010
-1.086532 2.436089 -0.441296
-1.336947 2.386178 0.112544
-1.287445 2.400251 -0.107456
-1.341741 2.406694 -0.109803
-1.480914 2.377423 0.120790
-1.637141 2.338573 0.634029
-1.509675 2.406669 0.089167
-1.775214 2.344456 0.561603
-1.749825 2.342252 0.558967
-1.682322 2.359050 0.357660
-1.858535 2.338691 0.579408
-1.812780 2.351257 0.534623
-1.823148 2.348472 0.513739
-0.819599 1.768990 0.116877
-0.852448 1.804954 0.419914
-0.964348 1.921423 0.420187
-0.937943 1.951130 0.080238
-0.937943 1.951130 0.080238
-1.101178 2.097252 0.373213
-1.178663 2.135156 0.320297
-1.179437 2.135008 0.319990
-0.713661 2.473524 -0.953281
-1.100604 2.440696 -0.452058
-1.447156 2.377228 0.165465
-1.385758 2.399543 -0.053383
-1.720235 2.337025 0.625832
-1.716466 2.353857 0.481674
-1.876679 2.341609 0.618169
-1.777140 2.359780 0.460663
-0.298705 1.377139 0.138906
-0.787544 1.715701 0.270573
-0.788093 1.772738 0.438820
-0.912841 1.792321 0.257962
-0.921104 1.846829 0.207952
-1.120840 2.076687 0.235148
-0.671058 2.485860 -0.925756
-0.679441 2.472681 -0.953321
-1.058691 2.416449 -0.304623
-1.275847 2.406993 -0.153223
-1.858116 2.342430 0.600624
-1.771790 2.350111 0.472750
-0.800492 1.845831 0.028541
0.044226 2.049811 -0.172776
-0.836302 2.454377 -0.744625
-1.011880 1.985429 0.461380
-1.518210 2.391774 0.102529
-0.880272 1.876020 0.462586
-1.034458 1.984586 0.370614
-1.027632 1.964413 0.137135
-1.168808 2.129964 0.342610
-1.168751 2.130391 0.341171
-1.108085 2.401330 -0.104884
-1.204683 2.395846 -0.030892
-1.211083 2.399656 -0.088098
-1.211083 2.399656 -0.088098
-1.278623 2.392684 -0.041506
-1.300678 2.395369 -0.061929
-1.261828 2.401460 -0.102477
-1.458684 2.376480 0.140434
-1.419105 2.386628 0.039506
-0.397778 0.705582 0.229415
-0.349354 0.887390 0.119870
-0.951288 1.870385 0.101910
-0.991492 1.910104 0.098043
-1.015485 1.954729 0.355669
-1.052510 1.970742 0.292029
-1.024432 2.070883 0.543729
-1.014760 2.030600 0.454294
-1.125892 2.093915 0.186057
-1.170194 2.408388 -0.215396
-1.475202 2.354322 0.469438
-1.416104 2.373012 0.286288
-1.343128 2.389512 -0.001101
-0.380800 0.908052 0.115584
-0.163056 0.914002 0.490467
-0.958433 1.847367 0.124389
-0.225603 2.477098 -0.905254
-1.471605 2.369395 0.214396
-0.904433 1.798699 0.073118
-1.453849 2.388664 0.028061
-1.325116 2.396522 -0.083362
-1.027504 1.964387 0.137177
-0.375772 0.686963 0.317596
-0.306056 0.799529 0.116534
-0.176098 0.821365 0.568629
-0.176064 0.821576 0.568684
0.122035 0.898264 0.491460
0.119113 0.886523 0.477078
-0.341453 0.811369 0.341374
-0.093939 0.929248 0.446356
-0.097836 0.919954 0.426859
-0.354205 0.990530 0.218903
-0.810501 1.787175 0.433522
-0.824324 1.732274 0.370048
-0.840431 1.793961 0.072352
-0.909536 1.811100 0.119424
-0.859795 1.785957 0.042849
-0.939851 1.865807 0.086201
-0.953320 1.899289 0.344464
-0.968727 1.883591 0.199334
-0.986775 1.889128 0.113000
-0.986447 1.904381 0.169370
-0.928721 1.992796 0.072617
-1.063899 2.055104 0.429519
-1.143147 2.430698 -0.388054
-1.323066 2.396722 -0.058921
-1.328457 2.408189 -0.129185
-1.477006 2.371971 0.251033
-1.522067 2.372606 0.207202
-0.389654 0.706607 0.229825
-0.357577 0.773557 0.330368
-0.160441 0.921661 0.464078
-0.270078 0.931733 0.256401
-0.150671 0.961486 0.425493
-0.340045 0.974747 0.226150
-0.401047 0.936035 0.151748
-0.604484 1.023040 0.623131
-0.605353 1.022820 0.623173
-0.584620 1.028391 0.566073
-0.294253 1.374433 0.127920
-0.844122 1.790021 0.367820
-0.989838 1.897018 0.262770
-1.008687 1.946290 0.319535
-1.014694 2.021736 0.105117
-1.120224 2.073219 0.309319
-1.120224 2.073219 0.309319
-1.144159 2.093125 0.234397
-0.909234 2.458690 -0.679234
-1.327342 2.370592 0.284254
-0.351168 0.719366 0.349917
-0.310453 0.829837 0.369611
-0.819527 1.709102 0.166089
-0.959571 1.906564 0.104177
-1.039827 1.987786 0.189618
-1.144464 2.176102 0.168804
-0.806290 2.463922 -0.830430
-0.876309 2.462411 -0.724718
-0.381221 0.702737 0.259619
-0.162531 0.914132 0.490471
-1.339658 2.393239 -0.023422
-0.175465 0.755916 0.558205
2.013715 2.381049 0.262500
-0.856925 1.766062 0.363188
-0.851994 1.723696 0.123617
-0.932616 1.807009 0.182835
-0.944178 1.936463 0.388012
-1.445804 2.362462 0.326919
-0.807377 1.731719 0.355071
-0.851060 1.780151 0.054917
-0.860274 1.773074 0.053585
-1.148927 2.149998 0.189599
-0.742223 1.962383 0.673173
-0.967745 1.877042 0.254864
-0.946960 1.926124 0.366737
0.118704 0.868262 0.474953
-0.291717 0.955267 0.238623
-0.313776 0.995433 0.236023
-0.541555 1.054872 0.556888
-0.293316 1.370954 0.109486
-0.728635 1.695988 0.369209
-0.728635 1.695988 0.369209
-0.696105 1.948226 0.660869
-0.814567 1.802160 0.441393
-0.289133 2.115955 -0.063626
-0.971420 1.915053 0.389893
-1.009776 1.903147 0.238878
-1.005210 2.024153 0.090756
-0.988629 2.128915 0.590150
-1.176738 2.121666 0.256704
-0.768852 2.436094 -0.521115
-0.660181 2.443570 -0.629027
-1.329258 2.351262 0.529773
-0.174690 0.766767 0.566501
-0.413317 0.820535 0.283113
-0.289825 0.987645 0.245641
-0.290673 0.987040 0.245375
-0.714309 1.681303 0.340605
-0.862405 1.771974 0.345892
0.148807 2.456871 -0.822198
-1.135076 2.169142 0.155620
-0.328281 0.808770 0.356614
-0.890837 1.756482 0.142612
-0.946538 1.877742 0.160906
-0.685825 2.462045 -0.881241
-0.877748 1.765740 0.246986
-0.959079 1.844672 0.120374
-1.119159 2.077704 0.235280
-0.853263 1.763202 0.395525
-0.837512 1.900625 0.504333
0.034856 2.048464 -0.172025
-1.111467 2.065131 0.348826
0.059963 1.535444 -0.275432
-0.798954 1.706159 0.302950
-0.786489 1.712280 0.336388
-0.961280 1.913642 0.340382
-0.690963 2.450214 -0.694318
-1.062089 1.981325 0.281047
-0.993471 1.919530 0.134574
-0.395917 0.771697 0.256883
-0.490054 0.809500 0.259960
-0.352676 0.901823 0.125718
-0.353807 0.901328 0.125735
-0.281725 0.981068 0.258989
-0.856307 1.787402 0.403127
-0.870045 1.754910 0.117730
-0.872404 1.946870 0.503996
-0.992312 1.978956 0.436874
-1.075781 2.096309 0.473978
-1.112925 2.100820 0.165294
-0.691960 2.436270 -0.703234
-1.213617 2.338678 0.671719
-0.701065 2.470430 -0.971247
-0.132458 0.949291 0.450406
-0.832134 1.916554 0.536539
-0.830054 1.932381 0.527684
-0.922771 1.873333 0.320411
-0.887147 1.827259 0.395231
-0.951146 1.890732 0.272472
-1.111385 2.157392 0.148077
-1.218821 2.209099 0.216994
-0.522685 2.475168 -0.995082
-0.401145 1.617828 0.587221
-0.929272 1.818838 0.146157
-0.940757 1.833125 0.092226
-0.295468 2.478709 -1.043911
-1.081307 2.104759 0.140378
-0.094079 0.940218 0.437262
-0.404347 0.656299 0.222213
-0.981126 1.906933 0.169049
-0.907445 1.782714 0.135179
-1.005601 1.946529 0.320612
-0.417227 2.461926 -0.849714
-0.305991 1.380901 0.081818
-0.915366 1.794068 0.286574
-1.004896 1.905621 0.259577
-0.996062 1.909173 0.261543
-0.995877 1.933692 0.230742
-1.049770 1.989793 0.379572
-0.077360 2.468380 -0.838696
-1.173172 2.122787 0.316509
-1.145393 2.140185 0.231298
-1.132497 2.150644 0.180352
-1.255466 2.389860 0.029973
-1.210657 2.396704 -0.066480
-1.160855 2.420146 -0.196965
-1.118578 2.421111 -0.349645
-1.269381 2.382729 -0.035914
-1.347296 2.395750 -0.094157
-1.301086 2.411100 -0.166635
-1.539140 2.345765 0.602242
-1.455815 2.373699 0.249423
-1.468260 2.383001 0.105446
-1.473168 2.385416 0.051053
-1.402301 2.399371 -0.031997
-1.401490 2.385979 -0.038050
-1.861437 2.334382 0.677992
-1.774104 2.338216 0.617750
-1.786104 2.343849 0.544614
-1.937827 2.344753 0.654100
0.965354 1.964162 -0.651120
-0.970180 1.898954 0.182257
-1.021868 1.934223 0.241709
-1.000468 2.001722 0.464137
-1.145151 2.399848 -0.155733
-1.107606 2.432229 -0.418409
-1.306208 2.412319 -0.154238
-1.195663 2.433364 -0.308077
-1.342233 2.423671 -0.102185
-1.515306 2.372598 0.254267
-1.509372 2.378270 0.134218
-0.935077 1.821483 0.122595
-1.012885 1.984953 0.121997
-1.217071 2.200371 0.253169
-1.371950 2.376688 0.201376
-1.348434 2.391057 0.012964
-1.294379 2.398001 -0.085892
-1.193375 2.426374 -0.295675
-1.193375 2.426374 -0.295675
-1.468673 2.347946 0.479845
-1.747010 2.353399 0.443368
-1.843992 2.356301 0.532740
-0.985944 1.926263 0.315621
-0.931513 2.031551 0.100238
-1.479531 2.377123 0.251863
-1.710566 2.334002 0.655233
-1.730510 2.345659 0.648454
-1.827262 2.343466 0.607116
-0.993725 1.931402 0.078058
-0.984486 2.057683 0.543536
-1.465177 2.397208 0.029114
-1.632063 2.376253 0.246179
-1.336747 2.393077 -0.111613
-0.491435 2.097487 -0.185821
-0.341356 0.811468 0.341248
-0.730368 1.687910 0.326407
-0.838756 1.766301 0.348549
-0.954559 1.898992 0.344582
-1.004406 1.966647 0.325472
-0.205595 2.475599 -0.968281
-1.136492 2.101217 0.193655
-0.550184 2.464088 -0.875256
-0.895001 2.424796 -0.352392
-0.359816 0.639435 0.229737
0.116100 0.915191 0.481951
2.541176 2.246106 -0.198489
-0.391447 1.582400 0.598556
-0.789122 1.705884 0.297144
0.071188 2.039001 -0.156013
-0.728777 1.682724 0.372910
-0.680472 1.719823 0.241346
-0.797316 1.793748 0.448195
0.496726 2.473523 -0.752931
-0.950683 1.885782 0.189610
-1.014226 2.023281 0.452518
-0.255265 2.475604 -0.936588
-0.820128 1.784979 0.425064
-0.959078 1.920416 0.335107
-0.750233 2.212244 0.673443
-0.764105 1.777185 0.460530
-0.248840 2.485444 -0.951799
-0.859944 1.760744 0.273079
-0.248607 1.445610 0.298687
-0.281127 1.371000 0.147296
-1.101564 2.038491 0.299649
-0.972123 2.019361 0.495373
-1.105421 2.075069 0.371542
-0.583197 1.022534 0.548862
-0.803406 1.752143 0.078958
-0.895560 1.780936 0.251835
-0.919226 1.780425 0.113908
-0.928884 1.818525 0.164496
-0.833517 1.937503 0.534098
-0.981503 1.912100 0.110798
-1.041091 1.993227 0.381890
-1.139710 2.080325 0.306119
-1.132898 2.096038 0.225920
-1.080781 2.432957 -0.455638
-1.305320 2.351886 0.529791
-1.452152 2.380439 0.107281
-1.440394 2.391192 0.048251
-0.623811 1.059404 0.184248
-1.041605 2.432525 -0.525600
-1.110901 2.433803 -0.450804
-1.341334 2.383702 0.111522
-1.337920 2.395401 -0.026591
-1.239358 2.423909 -0.225948
-1.239358 2.423909 -0.225948
-1.506103 2.357418 0.413490
-1.516895 2.371879 0.253786
-1.770884 2.334671 0.469495
-1.785095 2.360718 0.482047
-1.863846 2.349220 0.575097
-1.864449 2.354785 0.561703
-0.603497 1.022996 0.624567
-0.811449 1.735249 0.079368
-0.964870 1.880548 0.255387
-1.096359 2.072873 0.212064
-1.351915 2.408165 -0.092872
-1.753191 2.349327 0.441112
-1.733788 2.366813 0.415958
-0.989280 1.924343 0.316958
-0.502008 2.088070 -0.158783
-1.052515 2.008273 0.290806
-1.768147 2.366038 0.416759
-0.370472 1.419685 0.219988
-1.104737 2.082362 0.242286
-1.765163 2.361271 0.450250
-1.010562 1.976873 0.455158
-0.887656 1.871680 0.460001
-0.976040 1.879269 0.203234
-0.949175 1.854750 0.199056
-0.997255 1.928408 0.214756
-0.961918 1.862343 0.248454
2.259643 2.073274 0.452427
-0.336700 1.388512 0.125373
-0.197522 1.418738 0.336173
-0.712874 1.702000 0.314219
-0.818144 1.737137 0.127248
-0.850871 1.782553 0.378196
-0.902242 1.931583 0.488501
-1.077791 2.055308 0.414447
-1.104108 2.065258 0.304185
-0.804185 2.477657 -0.861763
-0.981737 2.450268 -0.605186
0.931812 2.236344 -0.570950
-0.813802 1.934492 0.046747
-1.132724 2.086137 0.345709
-1.161133 2.101003 0.249319
-1.466402 2.360591 0.442650
-1.503317 2.371105 0.188621
-0.855332 1.928010 0.510203
-1.083695 2.047902 0.205111
-1.434504 2.365163 0.319071
-1.052515 2.008273 0.290806
-1.297661 2.404900 -0.129500
-1.183988 2.430470 -0.357736
-0.305945 1.393787 0.097151
-0.305945 1.393787 0.097151
-0.907365 1.886072 0.352805
-0.862015 2.006697 0.048717
-0.338948 1.390168 0.168012
-0.338948 1.390168 0.168012
-1.060778 2.075664 0.124520
-0.864668 2.448064 -0.699292
-1.075662 2.061513 0.400854
-1.304136 2.423149 -0.182950
-0.955138 1.848360 0.123893
-1.038525 1.982908 0.327465
-1.680466 2.371349 0.317000
-0.855611 2.466333 -0.757238
-1.160633 2.152008 0.198789
-0.948651 1.833611 0.094642
-0.959411 1.938897 0.419577
-1.038350 2.002042 0.142039
-1.117356 2.084311 0.300660
-1.041613 2.436882 -0.506686
-1.329983 2.368962 0.283100
-1.599330 2.375705 0.224858
-1.489209 2.403144 0.082998
-1.638144 2.372800 0.242313
-0.308778 1.396702 0.079629
-0.302542 1.397402 0.080345
-0.825586 1.807428 0.449326
-1.028266 1.973843 0.252447
-0.993690 2.004300 0.128534
-1.019887 2.004408 0.440916
-1.499277 2.361628 0.416026
-0.929399 1.847625 0.223489
-0.802369 1.943329 0.525556
-0.983215 1.898438 0.211848
-1.069492 1.984830 0.302661
-1.082609 2.024771 0.241695
-0.953966 1.908768 0.104162
-1.000779 1.917192 0.131349
-1.078229 2.038052 0.222228
-0.743957 1.707953 0.346947
-0.910731 1.885340 0.433451
-1.223852 2.178790 0.237011
-1.272065 2.393728 0.007873
-0.839760 1.890999 0.502322
-1.138286 2.160818 0.145605
-1.209302 2.410109 -0.166927
-0.893526 1.773939 0.315125
-1.910954 2.335605 0.656725
-1.226684 2.409687 -0.255806
-1.795534 2.360613 0.464592
-1.540356 2.372956 0.159031
-1.180857 2.135232 0.286717
-0.827083 1.770289 0.371175
-0.890372 2.010717 0.063979
-1.046720 2.021413 0.425315
-1.848795 2.347015 0.544573
-1.715990 2.369918 0.362510
-0.691238 2.450079 -0.694284
-0.369995 0.756759 0.318713
-0.347274 0.876026 0.109958
-0.347274 0.876026 0.109958
-0.309165 1.396512 0.080005
-0.316524 1.410257 0.086876
-0.710603 1.669174 0.369718
-0.897413 1.789914 0.110285
0.052248 2.479927 -0.955397
0.153659 2.495452 -1.156382
-0.171283 2.467933 -0.920711
-1.064319 1.974439 0.307748
-0.288565 2.463916 -0.847452
-1.068760 2.045539 0.362421
-0.310897 2.478813 -1.011567
-0.511193 2.473829 -0.958958
-0.707450 2.449033 -0.654556
-0.356692 0.885518 0.103733
-0.796565 1.700431 0.297305
-0.866682 1.756287 0.291397
-0.900993 1.809135 0.298479
-0.908492 1.966282 0.506874
-0.959036 1.863593 0.249183
0.028436 2.498957 -1.238033
-0.303708 2.467540 -0.861779
-0.214004 2.477959 -1.104344
-0.360030 2.479562 -1.007850
-0.341622 1.008843 0.248842
-0.256334 1.455639 0.298917
-0.682256 1.946882 0.618512
-1.055800 2.031418 0.393408
-1.008990 1.961347 0.097720
0.126813 0.843164 0.472666
-0.161434 0.953531 0.418729
-1.078551 2.026437 0.243728
-1.085350 2.041769 0.215173
-0.366755 0.990535 0.220392
-0.949158 1.852502 0.230435
0.074285 2.488256 -1.162363
-0.984644 1.895993 0.194669
-1.080089 2.079948 0.155322
-0.972011 1.906401 0.241463
-0.893451 1.776174 0.085330
0.133173 0.876658 0.488723
-0.380247 0.700755 0.275929
-0.348071 0.759481 0.341752
-0.340249 0.828465 0.338568
-0.371309 1.012679 0.238181
-0.264058 1.480352 0.302567
-0.424712 1.573435 0.581070
-0.797938 1.838712 0.463735
-0.822214 1.734997 0.281093
-0.856772 1.748713 0.238650
-0.861747 1.756982 0.122904
-0.986811 1.905957 0.299237
-0.995518 1.941012 0.095011
-0.288472 2.463587 -0.847926
-0.340199 2.481200 -1.127133
1.874687 2.149824 -0.279093
-0.766856 1.745117 0.449874
-0.780053 1.703081 0.244631
-1.013549 1.943573 0.180667
-0.684784 1.942617 0.617832
0.241799 2.497363 -1.151023
-1.053538 2.038545 0.436682
-0.234576 0.951308 0.677036
-0.317530 1.020926 0.248604
-0.564257 1.754640 0.401220
-0.737545 1.714256 0.352892
-0.794244 1.860701 0.498790
-0.883448 1.758940 0.241286
-0.888781 1.986569 0.540603
-0.995786 1.929319 0.219062
-0.359566 0.994702 0.221250
0.068699 2.482713 -1.159588
-1.037181 1.984519 0.191543
-0.908324 1.895272 0.447852
-1.006718 2.029294 0.452869
-0.985013 2.029733 0.489828
-1.428210 2.392656 -0.008705
-0.927654 1.810164 0.258741
-0.929381 1.808296 0.182150
-0.234445 0.922748 0.673903
-0.329395 0.826230 0.351936
-0.421186 0.841970 0.290474
-0.396682 0.922313 0.123107
-0.402017 0.919114 0.124012
-0.452603 0.974744 0.359156
-0.450056 0.975499 0.358376
-0.376586 0.992073 0.205422
-0.865508 1.771194 0.390131
-0.901568 1.895877 0.368709
-0.906097 1.803375 0.228624
-0.475382 0.794574 0.249519
-0.739124 1.704336 0.372451
0.231929 2.491461 -1.055114
-0.878621 1.900060 0.482086
0.008835 2.047392 -0.198344
-0.422261 0.855321 0.303837
-0.913714 1.911708 0.477061
-0.947085 1.852452 0.228232
-0.914683 1.853857 0.087673
-1.014794 2.044919 0.518366
-1.015713 1.909863 0.125943
-0.846930 1.904156 0.515496
-0.823705 1.724319 0.162958
-0.236700 2.117616 -0.097338
-0.998799 1.932145 0.149346
-0.387653 0.835979 0.296351
-0.372487 0.940434 0.160837
-0.266582 1.458284 0.284586
-0.313258 1.400443 0.148353
-0.222270 2.125993 -0.049658
-0.906226 1.814336 0.257397
-0.940376 1.838161 0.271702
0.013210 2.504875 -1.378697
-0.209271 2.472750 -0.965412
-0.136909 2.489050 -1.336674
-0.152217 0.958640 0.426106
-0.359349 0.884397 0.104703
-0.267170 2.153453 -0.340113
-0.373193 2.456863 -0.886450
-0.852250 1.784714 0.075773
-0.381559 0.913324 0.133365
-0.975014 1.856260 0.208913
-0.400646 0.806356 0.272520
-0.942324 1.887019 0.194513
-0.759918 1.711108 0.366790
0.040891 2.497224 -1.281314
0.042021 2.498300 -1.282047
-0.854623 1.805526 0.418644
-1.016808 2.043721 0.451879
-0.419228 2.490873 -1.268484
