ply
format ascii 1.0
element vertex 1725
property float x
property float y
property float z
end_header
4.292222 3.085983 1.730193
3.855753 2.800042 -1.783112
4.043401 2.895543 -2.362094
3.973274 2.903921 -2.580268
3.912690 2.891118 -3.813429
3.940200 2.947185 4.822058
1.524218 1.805168 0.823663
3.650055 2.905128 -3.594751
3.492940 2.981128 -3.731082
3.514706 3.039217 2.865797
3.571550 3.019921 2.766097
3.472310 3.060383 -2.149428
3.404950 3.006480 -3.544194
3.195988 3.022438 2.777575
0.967962 1.790234 1.158126
2.748629 2.910371 -4.538551
0.616204 1.788882 1.408219
2.635258 3.056255 -3.403249
2.504943 3.078692 -4.199380
2.364995 3.026358 3.376336
0.400874 1.809787 0.833774
2.232064 3.076001 -3.431207
2.081657 3.029732 3.426297
0.320217 1.784713 1.565614
0.082602 1.820262 -0.429691
1.681163 3.085118 -3.119035
1.531754 3.063248 -3.152318
1.560796 3.073243 -3.495060
1.384130 2.984068 3.471962
-0.031463 1.807873 0.327384
-0.031937 1.808210 0.326899
1.334961 3.095234 2.699216
1.296091 3.085458 2.472843
1.023516 3.022891 3.344279
-0.584669 1.817894 0.632270
-0.602452 1.837111 -0.399460
0.853024 3.137749 -3.008362
0.734208 3.053458 -3.399522
-0.777573 1.802173 1.116570
-0.740401 1.815642 0.826848
0.301985 3.133186 2.081173
0.368112 3.143886 1.681451
-0.949185 1.829903 0.303341
0.306503 3.183721 -1.949299
0.189502 3.185575 -2.783352
0.194017 3.190589 -2.787360
0.126677 3.170185 -3.011903
0.134664 3.186060 -2.580435
-0.073311 3.162761 0.347803
-0.310635 3.144587 1.700003
-0.509430 2.867675 -0.280994
-0.306586 3.194267 -1.739272
-0.477526 3.162868 -2.328828
-0.386964 3.182914 -2.712114
-0.375434 3.105272 1.305101
-0.446399 3.193460 -1.528925
-0.644825 3.184319 -1.314775
-0.644825 3.184319 -1.314775
-0.580034 3.194307 -1.524489
-0.579024 3.195889 -1.525632
-0.620319 3.182786 -1.631405
-0.650436 3.190211 -1.544535
-0.679494 3.177792 -1.886965
-0.704314 3.170215 -2.097528
-0.736628 3.166242 -2.229975
5.204353 0.940729 -1.296404
5.183360 0.963378 -1.414823
11.301272 2.070767 -8.092487
10.340833 2.502638 -8.126434
8.816197 2.338876 3.107976
4.996219 1.572185 -1.126421
8.053909 2.584591 2.778631
7.879330 2.654857 2.758310
5.121303 1.700668 -1.820301
5.145961 1.962405 -0.829456
4.918716 1.915846 -2.087887
5.057785 2.193461 0.622041
5.266084 2.409548 1.104192
4.461239 2.165972 -4.564349
5.561763 2.821764 5.002563
6.350677 3.065877 2.508090
4.983452 2.902574 0.879567
4.433860 2.635404 -2.588388
4.223426 2.479672 -5.051647
4.756443 2.944149 1.040126
4.738363 2.937365 1.040018
4.840936 2.915734 0.876788
4.490200 2.843816 -3.173392
4.340009 2.895114 -3.202782
4.281185 2.780702 -4.060229
3.946492 2.942684 4.746704
4.598044 3.048317 1.724069
3.574459 2.905588 -3.909013
3.412508 3.002466 2.538169
1.210964 1.797783 0.877911
3.286104 2.966571 -3.769709
3.284730 2.964665 -3.770481
3.260698 2.992318 -3.934565
3.085219 3.042828 2.974424
0.915094 1.790075 1.081564
2.418563 3.052871 -3.916006
2.465451 3.046491 -4.413233
2.359433 3.089539 -3.383455
2.260541 3.051534 -3.473120
2.247809 3.067012 -4.078585
0.182255 1.792198 1.597210
0.291770 1.796269 1.347952
0.298953 1.799910 1.349391
2.057548 3.093766 -3.327196
2.067512 3.085403 -3.839749
1.576078 3.195377 -2.149820
-0.227943 1.815359 0.849104
0.595781 3.038843 -3.237913
0.379457 3.181736 -2.469882
0.446893 3.121324 3.347780
0.446893 3.121324 3.347780
0.264228 3.164854 -2.829199
0.219664 3.172554 -2.981949
-0.060221 3.197867 -1.856049
-0.109160 3.111371 3.116126
5.180327 1.082161 -1.791016
9.050596 2.184771 6.712523
7.270561 2.598026 5.468835
6.041413 2.547078 4.457247
5.340544 2.775806 5.318612
0.269937 0.877761 0.256516
0.013595 0.859662 0.354852
4.344476 2.983528 3.894336
4.421815 3.121067 2.004047
3.332592 2.884674 2.262504
3.332592 2.884674 2.262504
2.123539 3.081575 -3.959292
2.101659 3.036972 -4.010475
2.103898 3.039330 -4.012700
1.644706 3.136569 -2.241170
-0.117627 1.839254 -0.863701
1.491816 3.075869 -3.096704
0.978210 3.089344 3.029263
-0.913244 1.814497 0.827655
0.167801 3.163735 2.481943
-0.508208 3.165381 -2.228772
-0.501689 3.160269 2.302200
-0.665502 3.176210 -2.207971
4.918660 0.842376 0.670524
6.018402 2.155722 4.164329
4.623733 1.935616 -4.925413
5.563482 2.806266 5.072150
4.232171 2.474048 -1.704997
4.697241 2.931442 1.149720
4.259588 2.836224 -2.797689
3.607769 2.839932 -4.156389
2.953240 3.011189 -4.238229
0.249180 1.810517 0.813878
1.318372 3.072430 -3.228068
1.318372 3.072430 -3.228068
0.538228 3.059499 -3.196534
-0.010881 3.152747 2.790869
-0.452866 3.202790 -1.588773
5.209340 1.426354 -3.351255
5.018042 1.739568 -2.364654
6.895538 2.642285 1.990286
4.671808 2.309019 0.572946
5.943308 3.080005 3.487479
4.414638 2.687753 -1.236595
4.534298 2.624357 -3.249851
4.414440 2.989784 1.408461
3.384723 2.778173 -4.210361
2.937857 3.019560 2.998000
0.794330 3.164873 -2.819169
8.240689 2.518223 2.733402
0.040779 1.790512 1.368326
-0.750178 1.824020 1.126667
-0.742993 1.829209 0.319794
-0.293448 3.139850 1.053551
10.862625 2.375629 -7.980746
0.213476 0.901561 0.242620
-0.289525 3.164941 -2.365606
4.988400 1.783849 -0.066433
3.883099 3.070146 4.121447
1.099249 3.197929 -2.108548
-1.048513 1.841282 0.338709
-0.293831 3.164904 -1.217618
4.857122 1.649782 -1.225337
1.037615 3.044270 3.127239
4.379621 2.445303 -4.439304
-0.295046 1.804790 0.916564
-0.212349 3.178735 -2.738147
-0.777554 1.806879 1.228602
5.088212 1.852111 -2.030374
5.994078 2.373030 3.819510
7.391721 2.825895 2.927472
1.437481 3.131948 -2.851544
-0.231751 1.798398 1.068085
-0.143774 1.841447 -0.929065
0.147564 1.628884 0.211116
-0.276965 1.825552 -0.188062
4.976643 1.322340 0.505698
-0.199122 3.204178 -0.801936
-0.250960 3.165332 1.063463
4.459179 2.584712 -4.422591
5.463026 2.956745 5.041310
5.120678 3.093805 2.388537
0.070385 3.130972 1.928298
5.007694 3.100150 2.141463
5.811080 2.286978 3.982883
4.206053 2.603335 -1.631378
12.167811 2.152462 4.072965
5.062197 1.598185 -1.401191
3.296452 2.997637 3.089583
-0.714028 1.832906 -0.114528
0.850184 3.122706 -3.091277
4.651059 2.719995 -3.458696
5.035596 1.867325 -1.532163
0.165014 3.174076 -2.914884
15.832046 0.724356 4.654747
15.279759 0.878933 4.490642
15.282006 0.677543 4.141099
10.709623 0.697084 -5.477752
10.484094 0.761099 -5.552426
15.578757 0.989913 4.864185
4.947463 0.541740 0.685316
5.602394 0.594315 -1.304899
5.705273 0.933595 3.661799
14.569561 1.563379 2.568918
5.258473 0.889905 -1.328656
5.248686 0.888593 -1.327555
6.436237 0.914011 -3.215722
6.144883 0.895818 -3.668156
13.478080 1.762044 9.167959
13.525140 1.856071 9.191787
5.346927 0.974043 4.078631
15.601609 1.914992 4.986974
5.351264 1.073714 1.119019
5.744696 1.188542 -0.786686
5.769757 1.130645 -0.804866
5.140849 1.099960 -1.217323
5.082595 1.151883 -1.520718
5.497929 1.057794 -2.254693
5.270350 1.027954 -3.020725
5.271681 1.026066 -3.021273
5.122129 1.373830 -1.836373
5.287876 1.341736 -2.508409
12.077701 2.196702 -7.897856
9.476122 2.190110 8.879498
11.112772 2.358016 7.090190
11.233711 2.334384 4.222876
5.573197 1.578929 -0.651731
10.345472 2.495982 6.118031
5.103010 1.734341 1.129088
5.179185 1.665132 -0.667330
5.045075 1.620568 -0.689005
4.708207 1.598579 -1.184367
5.182374 1.780270 -1.858401
5.211889 1.725751 -2.007907
4.905402 1.626008 -2.808025
8.943423 2.516268 3.760561
6.932018 2.389147 1.576298
5.111838 1.945442 0.998643
5.100170 1.979825 -1.148706
5.570354 2.026049 -2.064988
4.726426 1.870127 -2.402508
4.535274 1.863394 -3.210967
5.010434 2.017160 -4.176328
7.487890 2.673144 2.815666
5.205767 2.178926 -0.645020
5.268619 2.144131 -1.630272
4.725597 2.027653 -4.298412
6.490361 2.652785 7.261643
5.830271 2.607298 4.478880
6.576636 2.832855 2.091912
-0.129123 1.048651 0.395157
0.192716 1.114305 0.172870
0.381896 1.158199 0.066232
5.052946 2.355831 -0.601666
4.838600 2.264256 -2.864990
4.892155 2.410548 -2.927903
4.871808 2.280895 -4.012597
5.253086 2.672732 5.172667
5.679596 2.695441 4.528349
6.106773 2.837084 3.769062
6.094010 3.001139 3.261352
5.411154 2.689082 1.254295
5.553537 2.788602 1.386947
5.189246 2.618587 1.129009
4.234689 2.461156 -1.961926
4.648632 2.497861 -3.962854
5.083286 2.966941 5.789100
5.451066 2.877587 5.105519
5.578632 2.877960 4.923377
5.527916 2.954070 4.777787
1.609187 1.815903 0.561873
4.431264 2.662317 -2.713573
4.438463 2.623758 -3.152923
4.455691 2.611609 -3.600691
4.527851 2.768651 -3.518276
4.472041 2.775687 -3.513931
4.733611 2.933809 3.272736
4.254468 2.862086 -3.646785
4.304579 2.987699 4.142887
4.130214 3.036524 2.931811
0.871747 1.799931 0.922275
1.089681 1.814329 0.810264
4.010929 2.932496 -3.424305
3.395548 3.011886 5.105664
3.598476 2.967133 4.993853
3.541588 2.976572 4.919190
3.883548 3.041600 4.218001
3.730259 3.049562 3.168890
3.581246 3.001123 -3.234761
0.187209 1.800684 0.932456
3.046135 2.977185 -3.896726
0.078014 1.804896 0.808611
-0.044190 1.808227 0.387513
-0.003227 1.804562 0.303411
0.015337 1.805979 0.227285
2.759159 3.067400 -2.467178
2.245951 3.078305 3.163770
2.249562 3.056888 2.736419
-0.266724 1.802045 0.866423
-0.266724 1.802045 0.866423
-0.165272 1.805914 0.232015
1.738216 3.040616 2.926101
1.935805 3.055888 2.724939
-0.454462 1.819861 0.313094
-0.377717 1.817533 0.214837
-0.398594 1.824325 0.272152
-0.289424 1.818928 -0.144366
1.498532 3.065757 2.838017
1.498894 3.065966 2.838136
1.766728 3.126588 2.532416
1.769812 3.202912 -2.022277
1.762147 3.198878 -2.021159
1.754457 3.173872 -2.400133
1.208507 3.092840 2.835696
1.217300 3.099255 2.840043
-0.658293 1.823212 0.418093
1.055533 3.064786 3.086170
0.952594 3.101102 3.005806
-0.901908 1.819077 1.044290
0.571961 3.045100 3.732687
0.762742 3.139919 2.670363
0.858349 3.140662 2.477745
0.837154 3.143777 2.484668
0.802380 3.134699 2.413547
0.815945 3.146997 1.840730
-1.053692 1.842984 -0.082280
0.732746 3.147454 1.878328
0.738153 3.151635 1.723399
0.856379 3.180040 -0.771709
0.810083 3.189333 -1.619809
0.739403 3.183830 -1.955629
0.816582 3.191759 -2.344232
0.303894 3.129287 3.094676
0.500725 3.155937 2.653873
0.374371 3.144729 2.589338
0.485056 3.137090 2.055343
0.414652 3.130362 1.917836
0.362834 3.141574 1.907790
0.608220 3.189808 -1.439241
0.641702 3.178746 -1.666027
0.657032 3.185506 -2.214973
0.486798 3.188033 -2.372796
0.260280 3.178620 -0.084637
0.366203 3.187829 -1.881641
-0.026700 3.146481 2.300954
-0.026700 3.146481 2.300954
0.099800 3.147992 2.290506
0.051070 3.131463 1.876445
-0.040751 3.146239 1.883935
0.069724 3.143236 1.677215
0.080582 3.163435 1.331391
0.030126 3.175893 0.547180
0.097439 3.202418 -0.585674
0.254765 3.196905 -1.714123
-0.163115 3.160083 2.745020
-0.061284 3.163341 2.706280
-0.061635 3.162956 2.705842
-0.153785 3.162938 2.654374
-0.175054 3.153884 2.434777
-0.141334 3.153181 1.983275
-0.057678 3.148436 1.918044
-0.191955 3.142606 1.789763
-0.214933 3.141024 1.719336
-0.241553 3.054301 1.088688
-0.046265 3.164279 0.407422
-0.080361 3.169592 0.296034
-0.178225 3.042352 0.046133
-0.032050 3.203588 -1.590683
0.096445 3.192644 -1.778880
-0.352404 3.152301 1.857504
-0.312868 3.146626 1.682717
-0.315376 3.069792 1.376965
-0.221190 3.161182 1.046912
-0.231107 3.174033 0.507634
-0.141197 3.179476 0.203680
-0.258993 3.173776 0.194816
-0.511057 3.172883 2.417248
-0.422627 3.159853 1.710025
-0.365868 3.154333 1.541727
-0.496938 3.157845 1.529041
-0.493158 3.161683 1.529866
-0.364113 3.174192 0.827669
-0.377728 3.185803 -0.068229
-0.471429 3.044915 -0.154239
-0.388077 3.198450 -0.620360
-0.276577 3.206769 -1.605110
-0.276448 3.206990 -1.605436
-0.311380 3.195096 -1.676892
-0.281965 3.191293 -1.904439
-0.562330 3.178601 2.497348
-0.626408 3.164514 1.903838
-0.515944 3.162898 1.288342
-0.469342 3.181732 0.823693
-0.469245 3.181833 0.823754
-0.447081 3.191137 -0.664220
-0.524746 3.183999 -1.307009
-0.398315 3.198577 -1.586780
-0.487550 3.193178 -1.530386
-0.462807 3.192449 -1.797872
-0.758671 3.172027 1.969180
-0.701731 3.169318 1.781446
-0.682887 3.162577 1.543714
-0.653936 3.167089 1.326674
-0.587629 3.188211 -0.462047
-0.587629 3.188211 -0.462047
-0.629347 3.195512 -0.709797
-0.656858 3.186050 -0.720765
-0.604600 3.187160 -1.024980
-0.654729 3.185623 -1.215833
-0.635190 3.189025 -1.521474
-0.586983 3.185861 -1.665936
-0.571536 3.183243 -1.762977
-0.561637 3.186960 -1.880478
-0.579781 3.179497 -1.854207
-0.703898 3.186705 -0.007091
-0.707043 3.189877 -0.226449
-0.659631 3.184247 -1.287716
14.450748 0.559562 10.955580
4.788455 0.352130 0.463064
10.496433 0.660877 -5.722204
14.367548 0.992113 11.302725
14.354654 0.920124 11.037856
6.114067 0.603458 3.506351
15.686213 0.952989 5.030464
10.679344 1.014705 -6.001651
5.481645 0.898335 -1.506225
5.038198 1.296368 -1.622245
5.129516 1.182482 -3.047511
10.864578 2.121124 9.436984
9.525256 2.095138 7.658259
11.249812 2.167594 7.079390
11.483662 2.341473 6.391616
10.104396 2.264868 -6.702234
7.021273 2.048828 1.613652
4.625872 1.744771 -2.892902
4.650882 1.933287 -2.940185
7.450247 2.622713 5.375709
4.855689 2.133394 -3.068198
5.238472 2.073157 -4.038202
6.039094 2.715241 6.697896
6.341018 2.622851 3.611275
7.107643 2.885305 3.437539
6.964575 2.800512 1.666179
-0.022066 1.059830 0.307090
0.085327 1.052428 0.234678
4.223290 2.168850 -1.679608
4.943507 2.327005 -2.709103
4.497633 2.307070 -4.212786
4.686010 2.573106 -2.732443
4.716977 2.419215 -3.753468
4.402702 2.450329 -4.217340
5.146155 2.803062 6.816653
6.140842 3.074203 2.906321
4.399795 2.983691 3.700770
1.119989 1.804476 0.829982
4.177004 2.848369 -2.441290
4.102162 2.858286 -2.485755
4.117821 2.820999 -3.494474
4.023609 2.909862 5.347172
4.176155 3.020458 4.045271
4.428221 3.063031 3.209899
4.069924 3.073084 -3.064189
4.034449 2.903198 -3.446764
3.696726 2.910656 -3.832255
3.558314 2.953709 5.155563
0.499051 1.792109 1.495169
3.420923 2.979201 -3.703057
3.304414 2.964871 -3.955933
0.294754 1.803286 0.910332
0.120251 1.739418 0.353575
2.766433 3.011914 3.862192
2.138337 3.033223 4.756664
-0.134012 1.814243 0.678509
2.210700 3.073389 -2.831324
2.256958 3.104367 -2.924646
1.908477 3.005917 4.645816
-0.356355 1.816627 0.354274
1.562301 3.014360 3.457770
1.547902 3.002912 3.299555
1.661125 3.129317 2.470188
1.657554 3.126946 2.470279
-0.558302 1.793904 1.243076
-0.577622 1.808827 0.895631
-0.524976 1.819367 0.427582
1.727408 3.084181 -3.103870
1.199468 3.000367 3.390073
1.199468 3.000367 3.390073
-0.839132 1.813670 0.840187
1.427491 3.160020 -2.714149
0.949148 3.105443 2.946781
1.226568 3.189641 -2.439699
0.692357 3.051425 2.922030
0.933916 3.130536 2.607646
0.899257 3.113143 2.513976
0.664741 3.147421 1.787331
0.263062 3.114845 3.414626
0.286235 3.023768 0.287717
0.274193 3.188670 -0.156512
0.293756 3.180299 -0.175335
0.333569 3.178288 -1.969990
0.062063 3.157369 1.359203
-0.012839 3.096785 0.736667
0.029750 3.142481 0.695797
0.128383 3.167226 0.420598
0.129110 3.196920 -1.720677
-0.093517 3.163206 2.818842
-0.276018 2.953568 1.160174
0.086654 3.185018 -2.208282
-0.204236 3.168488 0.210074
-0.397335 3.176766 0.502412
-0.363065 3.168841 -2.073747
-0.553119 3.170466 2.529965
-0.549390 3.173990 2.533003
-0.528951 3.188030 -0.999597
-0.631021 3.140540 -0.228341
-0.654413 3.193668 -0.676533
-0.566028 3.184344 -1.574781
-0.559894 3.191301 -1.578350
-0.568947 3.191587 -1.618015
-0.591385 3.192021 -1.542353
-0.588857 3.182235 -1.874462
-0.602200 3.175956 -1.986333
-0.666910 3.194006 -0.707224
14.211039 0.704843 11.250564
14.343777 0.695273 11.209980
10.677992 0.731679 -5.425766
10.508688 0.822551 -5.690304
15.449176 1.108837 4.797173
15.177357 0.888599 4.559913
15.989861 0.941462 4.249131
10.599799 0.923248 -5.854216
5.213237 0.767029 -1.480863
5.779374 1.190062 -0.833325
12.311563 2.129999 4.334889
5.392243 1.234920 -0.926379
10.849748 2.414723 6.202239
5.170911 1.481790 -2.182156
4.708298 1.634614 -0.991073
9.033051 2.503470 6.510122
7.590768 2.490965 5.591563
8.873575 2.525929 3.357487
4.935789 1.820867 -2.843257
7.321252 2.515107 8.098970
7.371578 2.545775 6.282785
6.785887 2.564394 3.848929
6.931135 2.549729 2.439648
6.670513 2.801290 2.213532
6.937801 2.731221 2.024483
6.984409 2.844083 1.618923
5.065428 2.297342 -1.152600
4.844427 2.226191 -2.774348
4.908917 2.292627 -2.804797
6.192373 2.947710 3.293394
0.301400 1.292983 0.144347
4.843118 2.963764 6.502929
4.377641 2.970118 4.077203
4.678651 2.929545 3.206999
5.061258 3.066484 2.627091
1.222484 1.806702 0.721661
4.026632 2.707643 -2.113489
4.461246 3.020169 3.929904
3.934832 2.967967 -2.250659
3.587413 3.043775 4.141777
3.609024 3.053806 4.153056
3.478259 2.981711 3.314072
3.687142 3.033706 -3.075585
3.765494 3.015452 -3.322532
3.150279 2.997625 5.006077
0.142507 1.805023 0.849148
1.994689 2.991006 3.825609
2.026720 3.048554 2.614329
2.033785 3.050552 2.616257
1.981958 3.080970 -2.602997
-0.632877 1.817569 0.502882
1.161353 3.027489 3.835389
1.118182 3.016308 3.714907
-0.722957 1.813849 0.690718
-0.657054 1.824862 0.237429
1.470998 3.169455 -2.340553
1.090850 3.128005 -2.830007
0.812444 3.050864 3.854157
0.710508 3.076417 2.993407
1.098505 3.157090 -2.663251
0.556242 3.135972 1.872634
0.557709 3.136824 1.871546
0.421620 3.180901 -2.476581
0.155332 3.188379 -0.054343
0.166186 3.185433 -2.223945
0.109595 3.212242 -1.259593
-0.303097 3.167966 2.447793
-0.456597 3.168335 2.170218
-0.463971 3.152969 1.345578
-0.690277 3.154300 2.784681
-0.680449 3.186097 -0.068835
-0.665223 3.102137 -0.247643
-0.637875 3.183120 -0.234065
-0.608489 3.189628 -1.387944
-0.604910 3.192541 -1.495934
-0.746487 3.187483 1.042292
-0.668076 3.199694 -0.690004
10.444270 0.630293 -5.596659
10.672368 0.678060 -5.923789
14.318486 1.009043 10.971999
5.038512 0.774374 -1.705746
5.275336 1.230570 -2.049913
5.252731 1.470401 -2.590943
5.228199 1.601886 -3.158452
6.855668 2.640802 6.566913
5.146612 2.102915 -2.479862
6.580097 2.602693 7.316071
4.820463 2.334980 -3.795889
5.870006 2.786653 6.469503
5.376848 2.664714 1.271944
4.804231 2.453893 -3.576859
4.334180 2.445470 -4.215857
4.297001 2.838155 -2.346557
4.120746 2.795119 -2.568644
3.965948 2.971179 -3.338499
0.575263 1.790105 1.521995
2.385496 3.014249 4.863981
2.056378 3.007777 3.481785
2.114354 3.060776 3.072445
-0.220696 1.811723 0.697576
2.396169 3.060559 -3.478849
1.877008 3.024303 2.771796
1.802295 3.168350 -2.222879
1.398116 3.179906 -2.572160
1.374298 3.157541 -2.781256
0.764661 3.144566 1.957901
0.507754 3.171667 1.056418
0.375380 3.195375 -1.107638
0.218418 3.207139 -1.260794
-0.082856 3.202913 -0.456522
-0.703510 3.160957 2.602673
-0.659555 3.198514 -0.524286
10.415258 0.819163 -5.488139
5.359429 1.073150 -1.250839
13.977908 2.059175 10.270268
5.208809 1.243361 -1.150437
11.177473 2.123920 8.945506
7.952019 2.242686 6.349339
6.917591 2.261278 2.310045
6.686448 2.635738 6.838986
6.732323 2.648861 6.866497
4.520614 2.339933 -4.191051
6.407368 3.056259 2.324442
4.709940 3.037903 2.994333
4.323518 2.893207 -3.193657
4.196685 2.864156 -3.717070
4.583046 3.055494 3.418891
-0.059597 1.807092 0.285620
2.100614 2.980339 3.842847
1.904671 3.182095 -2.074300
-0.756785 1.816900 0.737475
1.447103 3.212027 -2.158463
1.439196 3.207597 -2.157529
0.834069 3.145308 2.129028
0.287830 3.178912 -0.011012
-0.570422 3.054317 -0.210033
-0.550398 3.198193 -1.493214
10.487943 0.634665 -5.643024
5.465519 1.098749 -2.123611
8.266755 2.281191 8.630578
4.895209 2.157868 -2.646372
5.268845 2.782310 6.294816
3.993100 2.886243 -2.247542
3.326453 3.031126 3.100764
2.267089 3.024987 3.666813
-0.690473 1.799176 1.159735
-0.690473 1.799176 1.159735
0.893520 2.994836 3.758346
1.255221 3.137354 -2.771080
-0.210621 3.159400 2.931650
-0.718942 3.173424 1.065256
5.871307 2.528953 4.482623
4.296428 2.461506 -4.276256
-0.765786 3.139783 2.730655
-0.540441 3.193145 -1.391908
4.025609 2.951022 4.472063
1.741435 3.060336 2.714837
4.840112 0.537064 0.578450
4.892339 2.512670 -2.687532
-0.080385 3.173285 0.321513
5.616613 2.736564 4.821886
6.962160 2.803286 2.424375
4.784867 1.760815 -1.121703
1.969372 3.012023 3.440148
3.255624 3.026742 4.705367
6.808701 2.989471 2.970553
0.619554 1.796721 1.016231
2.791130 3.032533 3.496226
4.775448 1.660969 -0.972422
5.372996 1.150529 -1.023202
5.192945 1.984752 -1.721383
7.994185 2.216816 7.497123
4.883514 1.714933 -2.924278
5.373475 2.651680 5.265398
5.497795 1.753510 -0.575687
-0.207350 3.009396 1.251910
-0.088511 3.189499 -2.149935
5.255258 2.068016 1.150942
0.801964 3.141600 2.783475
-0.694940 3.187047 -0.029472
5.339020 0.691993 -1.223070
0.367387 3.143299 1.681871
0.673059 3.185068 -0.768964
-0.388565 1.812859 0.700273
13.412401 1.046754 9.940635
1.888873 3.029559 2.822476
0.092761 1.293307 7.760068
4.452846 2.722556 -2.643605
0.660726 1.131765 7.700615
4.995007 2.980446 1.471549
5.178716 2.955621 5.477775
4.917898 3.020252 6.176244
7.450309 2.223489 7.897551
7.219829 2.544790 7.769059
5.089708 1.580801 -0.879085
5.452375 2.979308 4.821654
5.291059 0.624611 1.182275
4.821236 0.481049 0.502031
12.809836 2.368885 3.033118
12.823713 2.387670 2.855946
12.608467 2.425540 2.798902
12.621022 2.443760 2.003871
5.699747 0.963583 -0.500287
5.330005 0.998910 4.087975
11.576539 2.452933 4.147459
11.586949 2.440916 4.064667
12.361564 2.470763 2.913866
11.352994 2.458821 2.600976
5.844551 1.124789 -0.293649
5.751034 1.017751 -0.497063
5.429099 1.172706 -1.094760
5.261895 1.100132 -3.017857
10.844740 2.466704 6.939956
4.991134 1.280176 -1.220751
5.192564 1.269972 -1.583399
5.337492 1.346298 -3.245116
11.157351 2.898262 -7.759141
11.157351 2.898262 -7.759141
10.715931 2.818764 -8.255719
9.272412 2.524681 5.545718
6.332646 1.693258 3.539994
6.323177 1.726690 3.533354
9.023014 2.539350 3.743648
9.023763 2.539632 3.743765
9.149587 2.525739 3.231331
5.051106 1.281618 0.890530
5.070941 1.344052 0.920864
5.102937 1.346886 -0.937557
8.874114 2.519171 5.858766
6.861434 2.048626 1.861322
4.993036 1.702649 0.661442
5.265229 1.744038 -0.023146
4.839335 1.654068 -0.975919
4.601886 1.611388 -1.027040
4.602077 1.610421 -1.027252
4.892750 1.660885 -2.834140
4.805643 1.847208 -4.944263
6.477901 2.069074 4.047183
7.773686 2.728822 3.025150
7.413834 2.685743 2.765274
7.044182 2.498871 1.520735
5.229839 1.897212 1.207709
5.077259 1.830479 -1.606093
5.267099 1.965937 -1.671496
5.027072 1.850902 -2.118900
4.981234 1.898582 -2.172616
5.138541 1.964300 -2.385446
5.221810 2.105005 -2.441941
5.221810 2.105005 -2.441941
5.123281 2.039379 -2.475385
4.775894 2.040574 -4.330539
4.792540 2.008554 -4.670962
4.869111 1.907422 -4.870757
4.505846 1.955799 -5.055566
5.826872 2.132894 4.321350
6.070583 2.311006 4.556827
5.814606 2.215880 4.384873
7.474797 2.842764 3.094392
6.861195 2.766334 2.525998
4.998196 2.166606 0.699888
5.281705 2.089612 -0.252418
4.539081 2.052165 -4.511969
4.418375 2.168872 -4.587428
4.583155 2.100401 -4.760614
4.553817 2.081995 -4.822664
4.422051 2.115850 -5.185662
4.528562 2.131611 -5.316211
6.826965 2.744053 5.097768
6.819752 2.730487 5.047757
6.249974 2.674851 3.772962
6.255480 2.677631 3.775714
6.846271 2.827100 3.535664
6.936352 2.953377 2.512023
6.727091 2.873458 2.353526
6.713358 3.027448 1.879199
5.114931 2.325641 1.014290
5.025865 2.243802 0.737350
5.044838 2.280037 0.763805
5.173986 2.495601 -0.650864
4.782111 2.497327 -2.612690
4.858734 2.349290 -3.769574
4.683109 2.507300 -3.724355
4.563067 2.453675 -4.067286
4.262745 2.394427 -4.542934
4.265413 2.396172 -4.545941
4.372260 2.367971 -4.967904
4.291020 2.228831 -5.121491
4.265224 2.385976 -5.177024
4.389218 2.267106 -5.263380
4.302746 2.253990 -5.244919
4.230569 2.263588 -5.309634
4.243448 2.271177 -5.324488
4.168763 2.332283 -5.300356
6.343682 2.797753 5.349168
5.808062 2.629754 4.462055
6.136277 2.901101 3.723329
6.093944 2.852726 3.386604
5.594806 2.710159 1.489629
5.620476 2.706583 1.376250
5.558257 2.882847 1.420337
5.417584 2.779983 1.244756
5.134701 2.644949 0.739582
4.836547 2.675663 -2.597507
4.417421 2.555183 -4.228335
4.350905 2.672617 -4.253293
4.341121 2.667629 -4.245430
4.200400 2.542511 -4.682311
4.200140 2.600385 -4.887419
4.212617 2.438981 -5.219818
4.199818 2.433423 -5.208254
4.046369 2.400597 -5.163344
4.011626 2.373788 -5.173750
5.605800 2.881824 4.999736
5.946424 3.106375 3.024090
5.156741 2.953617 1.324108
4.997213 2.907006 1.179445
4.593318 2.620394 -0.135595
4.237070 2.753021 -2.928965
4.305672 2.745082 -3.458931
4.326161 2.697871 -3.583656
4.173092 2.657618 -3.754360
4.129957 2.651082 -4.959544
4.026340 2.598144 -4.933344
3.986793 2.792769 -5.015072
5.407415 2.921820 5.232196
5.432176 3.109916 4.848130
5.439028 3.128036 4.565260
4.856585 3.014544 2.998195
4.905690 2.967314 2.941120
4.682461 2.947046 1.296581
4.693687 2.951311 1.298122
4.657784 2.905269 0.899157
4.456554 2.886109 0.853052
4.095334 2.842458 -1.586206
4.103489 2.856222 -1.690055
4.040129 2.904848 -2.025671
4.041600 2.904426 -2.434901
4.086697 2.925774 -2.722859
4.243030 2.919999 -3.232349
4.542641 2.988136 3.986370
4.514806 2.962161 3.863924
4.410176 2.984549 3.657287
4.660442 2.963223 3.660507
4.544527 3.004457 3.563157
4.555515 2.979084 3.504866
4.501599 3.014228 3.531311
4.561333 3.030719 3.447250
4.607884 3.026859 3.193888
4.808219 3.069496 2.913639
4.794300 3.063055 2.910573
4.374711 3.071157 1.827518
4.528566 2.992409 1.499561
4.421470 3.088512 1.645491
4.378060 2.934810 1.385257
4.422311 2.947492 1.296805
4.349429 2.943314 1.003182
3.535889 2.924880 -3.692874
3.171379 2.813601 -4.104221
4.056704 2.960092 4.449982
4.289824 3.019380 4.149208
4.225613 3.050285 3.764581
4.180701 3.010372 3.492596
4.180701 3.010372 3.492596
4.352989 3.075082 3.182955
4.102889 3.057798 3.149070
4.123785 3.104721 2.127727
4.195210 3.125807 2.080667
4.358457 3.112399 1.919050
1.520211 1.800012 0.881594
3.286152 2.973114 -3.764548
2.838643 2.782755 -4.522237
3.535708 3.016964 2.945240
3.042863 3.105473 -2.155513
2.920714 3.050335 -3.214954
3.616885 3.043390 4.015460
3.638151 3.049091 3.967488
3.230409 3.034066 3.662433
3.409929 3.031804 2.576164
3.120536 2.878050 2.268129
2.576298 3.050900 -3.261265
2.469358 3.067498 -3.238490
2.489349 3.070771 -4.038202
2.384259 3.051141 -4.389495
3.255304 3.023966 4.281263
3.220791 3.059370 3.475590
2.812610 3.080704 2.749303
2.909055 3.074218 2.487293
0.733733 1.796655 1.090189
2.160430 3.079037 -3.131601
2.171976 3.080335 -3.984992
2.172773 3.078424 -3.985475
2.087472 3.096220 -3.938735
2.838205 3.043846 3.740510
2.639548 3.042131 3.335883
2.656841 3.062236 2.701118
2.554022 3.041165 2.551185
2.480401 3.044042 2.639697
0.712099 1.800178 1.456451
0.504447 1.789150 1.426701
0.662019 1.791904 1.320046
0.631646 1.788781 1.147254
1.691651 3.082631 -3.253075
2.310908 3.029226 2.812465
2.340428 3.042265 2.724541
2.378231 3.052118 2.544507
2.334574 3.071908 2.517103
2.210080 3.080055 2.614199
2.121195 3.080343 2.456747
0.337978 1.783801 1.687448
0.106021 1.822277 -0.259052
1.900231 3.045152 2.941961
0.129690 1.791596 1.173101
0.007847 1.804665 0.366394
-0.042802 1.809032 0.306304
-0.035983 1.784582 1.596152
-0.131880 1.797761 1.096548
-0.026312 1.806350 0.808328
-0.176159 1.834947 -0.412674
-0.247147 1.844926 -0.801797
1.143489 3.189450 -2.373925
1.643215 3.025924 3.473349
1.571738 3.003188 3.278267
1.388499 3.070086 3.019904
1.581811 3.060216 2.821891
1.494077 3.069993 2.688426
1.389684 3.081155 2.631113
1.556824 3.127031 2.371190
1.389073 3.140201 2.234108
0.643082 3.130958 -3.064988
1.282843 3.002971 3.339782
1.239576 3.024267 3.202755
1.168447 3.101200 2.883758
1.262630 3.103415 2.752672
-0.385729 1.788428 1.328719
0.366387 3.101277 -3.358289
1.027314 3.019095 3.318643
1.023254 3.016734 3.316108
1.001078 3.023240 3.215317
1.081444 3.098554 3.062228
1.021984 3.111480 2.796311
0.947736 3.128342 2.424153
-0.619671 1.801768 1.078129
0.329315 3.193518 -1.934451
0.314527 3.171659 -2.978127
0.192937 3.159936 -3.165569
0.907389 3.129352 2.763027
0.886127 3.139921 2.499862
0.875267 3.140809 2.450585
0.802615 3.135706 2.413592
0.836704 3.139574 2.208617
0.688164 3.142859 2.206051
-0.716999 1.809316 0.874168
0.173112 3.173869 -2.055754
0.678902 3.071618 3.339647
0.678356 3.033181 3.146109
0.611409 3.151959 2.842461
0.560916 3.155054 2.582293
0.637036 3.151354 2.503469
0.609011 3.153828 2.513570
0.618816 3.129422 2.162732
0.612273 3.124909 2.161978
0.603260 3.135085 1.994587
0.479511 3.139123 1.874801
0.410542 3.154853 1.479123
0.410584 3.155046 1.479236
-0.816991 1.801364 1.130960
-0.851131 1.806082 0.987617
-0.877429 1.819281 0.615403
-0.928740 1.820746 0.618887
-0.926133 1.831304 0.077484
-0.086122 3.188982 -2.317699
0.469189 3.134918 3.280399
0.382026 3.159747 2.655853
0.294096 3.143073 2.155030
-0.949936 1.820727 0.686679
-1.067251 1.834471 0.269974
-0.400358 3.129703 -2.947825
0.443243 3.095112 3.550752
0.358708 3.162730 2.669578
0.068873 3.142207 1.677654
-0.041518 3.176737 0.749609
-0.041783 3.176793 0.749955
-0.180265 3.207033 -0.620703
-0.424660 3.171822 -2.773058
-0.461112 3.173234 -2.811488
-0.569926 3.169059 -2.836749
-0.570568 3.167939 -2.835638
0.115082 3.172646 2.680260
-0.239064 3.041631 1.354633
-0.490393 3.027998 -0.306842
-0.488913 3.192831 -1.529817
-0.673736 3.160249 -2.232627
0.007847 3.146077 2.718535
-0.119957 3.152700 2.651751
-0.018859 3.163817 2.631473
-0.062920 3.125613 2.351487
-0.070333 3.119090 2.348446
-0.050725 3.161287 2.277901
-0.338599 3.044104 1.285081
-0.430807 3.179783 0.390454
-0.636118 3.188476 -1.520684
-0.674053 3.187028 -1.517092
-0.715661 3.187520 -1.515178
-0.737724 3.162264 -2.286922
-0.772307 3.162682 -2.310018
-0.781666 3.158064 -2.341231
-0.762897 3.162599 -2.403980
-0.762398 3.161523 -2.403839
-0.095705 3.166963 3.048562
-0.462431 3.142534 1.375782
-0.545298 3.183964 0.296132
-0.631107 3.185106 -0.720482
-0.721622 3.200822 -0.688832
-0.781593 3.187121 -1.461156
-0.819740 3.180793 -1.402273
-0.839295 3.181143 -1.588416
-0.780964 3.168278 -1.743650
-0.801534 3.175393 -1.726830
-0.906794 3.168971 -1.665638
-0.375700 3.155855 1.982630
-0.385447 3.158054 1.969377
-0.457066 3.164904 1.729815
-0.521039 3.173998 0.984913
-0.648757 3.184473 0.704031
-0.772808 3.174384 0.173212
-0.731277 3.180108 -0.338687
-0.782481 3.186345 -0.768084
-0.883446 3.193054 -0.774096
-0.894343 3.192560 -0.910040
-0.863571 3.183695 -1.046212
-0.874908 3.187238 -1.391374
-0.886443 3.182642 -1.465391
-0.430794 3.165774 2.657084
-0.825457 3.187181 -0.072446
5.928849 0.753638 -0.790563
13.689770 2.372505 4.393006
12.856541 2.275539 2.917994
12.753397 2.394870 2.783227
5.805321 0.861121 -0.492983
11.868399 2.439282 3.859130
5.267392 1.029745 -1.474364
10.129369 2.458704 -6.685957
10.856405 2.468485 7.059199
4.972103 1.062128 0.800291
5.092854 1.133635 -1.379266
9.749368 2.481677 6.303979
5.163218 1.495687 -1.467043
8.449542 2.541509 5.783706
8.975352 2.533886 5.495989
4.951047 1.470123 0.732811
5.392570 1.768989 -0.561522
4.937856 1.583031 -2.537000
6.325141 2.091166 4.168267
6.131683 2.110332 3.849880
4.984516 1.881984 0.059069
5.453017 2.175566 -1.790484
5.277235 2.134024 -1.830313
5.022636 2.043327 -4.424956
4.805382 2.042523 -4.534194
4.768141 1.945038 -4.831433
4.750877 1.937541 -4.953023
6.766085 2.581772 2.151324
5.062302 2.128866 0.692971
5.064352 2.130050 0.692217
5.275298 2.213310 -1.826671
5.434319 2.367670 -1.797420
4.897159 2.289461 -2.799296
4.890199 2.283835 -3.027664
4.761161 2.072262 -4.179390
4.495531 2.092022 -4.613518
6.181277 2.630309 3.710531
6.230572 2.778067 3.629307
6.803088 2.803637 2.458709
6.672662 2.871082 2.261771
6.737214 3.021391 1.796660
4.336477 2.314787 -5.127068
6.131425 2.956626 3.555281
6.209557 3.082716 2.789611
5.092476 2.675271 0.831390
4.900164 2.473748 0.245826
4.435296 2.450197 -2.033096
4.568461 2.735959 -3.425431
4.287055 2.485863 -4.828266
4.200320 2.498167 -4.948941
5.623502 2.741331 4.780842
6.000810 3.076813 3.436543
5.309707 3.026657 1.841364
4.522595 2.716075 -0.178158
4.503108 2.728367 -0.252588
4.290014 2.664804 -1.513884
4.318650 2.627381 -2.808159
4.336746 2.659140 -3.767216
4.227343 2.822073 -4.022229
3.819192 2.623067 -4.198252
4.165137 2.691057 -4.441630
3.876080 2.709074 -5.032451
3.870064 2.693882 -5.069572
5.517888 3.126183 4.403818
4.947096 2.972148 3.107276
5.047398 2.981770 2.770975
4.993430 2.936934 1.204224
4.778353 2.895422 0.923173
3.911126 2.642694 -1.972119
4.090549 2.832640 -2.106438
4.223560 2.793343 -2.368452
3.727960 2.890043 -3.625693
3.608787 2.779694 -3.927719
4.595971 3.056273 3.015266
4.304064 2.891523 0.703473
4.234344 3.020277 3.705005
3.940586 3.108130 1.947735
3.711467 3.050561 3.443097
3.891890 3.040350 3.155335
3.893271 3.041977 3.043426
3.742167 3.043885 2.981281
3.181616 2.878369 2.272045
3.061540 3.042047 -3.045799
3.366872 3.050532 3.453918
3.104972 3.026240 2.234752
-0.114231 1.073554 0.355839
2.500600 3.054350 -3.053227
0.777896 1.811855 0.603481
0.122567 1.460373 0.410866
2.143025 3.066811 2.645760
0.435862 1.793421 1.675295
0.366301 1.792597 1.425853
2.154738 3.043990 3.236032
2.067233 3.006349 2.823821
1.933470 3.110134 2.518855
0.104084 1.806531 0.121681
1.756293 3.021191 3.276579
1.719143 3.126565 2.499678
-0.243551 1.844820 -0.865102
-0.328904 1.848209 -0.933444
1.545633 3.009165 3.638004
1.423596 3.002355 3.380916
-0.229702 1.782134 1.052876
-0.331225 1.811092 0.699754
-0.303711 1.824769 0.510801
0.633486 3.142016 -3.022464
1.200423 3.083558 3.018697
-0.455147 1.798226 1.110096
-0.600083 1.832171 -0.302902
0.408054 3.078684 -3.382569
1.034335 3.034309 3.351816
-0.627031 1.815177 0.735751
-0.651345 1.836750 -0.284299
0.787413 3.088529 3.180997
0.873951 3.135290 2.772084
0.706468 3.151413 1.776538
-0.659868 1.808933 0.964423
-0.709868 1.815009 0.829735
-0.750000 1.824722 0.230508
0.291240 3.204705 -1.225635
0.644409 3.048002 3.481455
-0.790289 1.813871 1.208730
-0.890844 1.832162 0.052292
-0.267464 3.155571 -2.991539
-0.267464 3.155571 -2.991539
0.318717 3.137960 2.112847
-0.304525 3.162914 -2.839726
-0.316721 3.172935 -2.953341
0.190058 3.132363 1.847119
-0.073017 3.168573 0.685302
-0.549951 3.165695 -2.670369
-0.458745 3.169491 -2.853148
-0.452326 3.185586 -1.525506
-0.616632 3.168184 -2.598642
-0.351145 3.079735 1.265508
-0.546941 3.019746 -0.232304
-0.729118 3.177670 -2.055079
-0.737656 3.164654 -2.047759
-0.851531 3.155584 -2.328133
-0.826716 3.149450 -2.813269
-0.519176 3.178820 0.401654
-0.665954 3.191465 -0.235533
-0.799444 3.187846 -1.268304
-0.750850 3.189404 -1.509190
-0.820315 3.186545 -1.448273
-0.898393 3.177655 -1.626457
-0.843497 3.168822 -1.911940
-0.877179 3.156421 -2.315845
-0.669990 3.185396 0.487678
-0.821263 3.188157 -0.838237
-0.841894 3.187744 -0.861889
-0.916341 3.193700 -0.894641
-0.920282 3.194360 -0.945454
-0.923248 3.186112 -0.980634
-0.913325 3.186512 -1.276455
-0.880332 3.196124 -0.464192
5.905441 0.700819 3.884107
4.860281 0.517826 0.427584
5.379255 1.264377 -2.900334
10.614760 2.889884 -7.924707
4.534114 1.642412 -1.026851
4.885055 2.072667 -2.777640
4.504860 2.014517 -3.155512
4.404302 2.070867 -4.502460
4.411037 2.070893 -5.322259
6.625902 2.927083 2.284530
5.089408 2.441075 0.722762
4.434923 2.163481 0.519770
4.734234 2.320529 -0.101543
4.974789 2.410930 -2.569222
4.889560 2.482661 -2.743133
4.372837 2.236911 -4.486731
5.122533 2.576165 1.067636
4.617718 2.538690 -1.198802
4.732234 2.558697 -3.025950
4.415240 2.551110 -3.449652
4.720873 2.552014 -3.787546
4.428414 2.513142 -4.200131
4.339252 2.445783 -4.219672
5.512295 2.807783 4.888291
4.550279 2.683076 -1.453040
4.239904 2.677914 -1.551187
4.213802 2.687417 -1.775038
4.529411 2.747154 -2.653282
4.883661 3.092534 1.959866
4.538375 2.926757 1.027583
4.537896 2.867755 0.737896
3.924184 2.833741 -1.808143
4.081303 2.903261 -3.575721
3.968875 2.921451 -3.850789
3.346454 2.659444 -4.038936
4.248353 3.043018 1.456256
3.849755 3.032183 -2.780301
4.268512 3.006376 3.487454
3.933936 2.959626 4.518589
3.921897 3.072714 3.960946
3.525261 3.053188 2.824430
1.350983 1.799694 0.710049
2.679369 2.975249 -4.355260
3.648840 3.027081 4.621844
3.464613 3.036416 3.281191
3.070797 3.014036 2.521768
3.079880 2.891195 2.283511
1.058334 1.794255 0.972000
-0.054259 1.216009 0.338926
2.833545 3.104932 -2.735225
3.088611 3.080210 2.782262
3.034974 3.101477 2.760683
2.972500 3.020909 2.394279
2.011224 3.062117 -3.485993
2.517025 3.047338 2.741589
2.589626 3.051692 2.650957
2.388981 3.035666 2.496339
2.652016 3.048111 2.501852
2.655339 3.047416 2.500553
0.142012 1.625203 0.211816
0.172474 1.652588 0.180322
2.470410 3.056979 3.060191
0.187721 1.792976 1.280254
-0.001624 1.832661 -0.680222
-0.162832 1.800148 0.891856
-0.383257 1.812508 0.310734
0.316467 3.111078 -3.225871
0.436654 3.101728 -3.347420
0.678811 3.061086 3.269969
0.678811 3.061086 3.269969
-0.946966 1.825963 0.691949
-0.087015 3.218699 -1.224392
0.304347 3.146231 2.844636
-0.473772 3.180257 -2.178500
-0.598058 3.164497 -2.902748
-0.000201 3.145112 2.052114
0.001245 3.147256 2.052540
-0.602424 3.183570 -1.972881
-0.285865 3.140819 1.160854
-0.584582 3.186215 0.099745
-0.661497 3.108110 -0.364961
-0.809866 3.186916 -1.510302
-0.808098 3.188081 -1.511424
-0.842300 3.185398 -1.508370
-0.872165 3.179598 -1.587852
-0.798963 3.192831 -0.386069
-0.868483 3.194948 -0.868715
5.206616 0.767060 -1.470917
5.001525 1.215353 -1.428300
11.035449 2.900443 -8.140476
8.848145 2.525548 5.715164
4.651012 1.711820 -1.125843
5.109753 1.875669 -2.009605
4.748656 1.776147 -2.881289
6.086829 2.295612 4.618746
7.182085 2.867688 3.527632
4.436440 2.162876 -5.091303
4.760577 2.460223 -3.687270
4.760577 2.460223 -3.687270
4.978641 2.512082 -0.201822
4.291286 2.417143 -4.293772
4.168120 2.513363 -5.152676
5.791383 3.109707 3.620248
4.020628 2.599329 -5.096350
4.406117 2.885225 0.739907
4.476743 3.006471 3.720733
3.712076 3.029891 -3.096296
3.754374 3.053115 -3.119880
4.008534 3.035824 2.718765
3.260237 3.031092 -2.867753
3.946620 2.985059 4.608126
3.704158 3.037697 3.264817
3.155913 3.067633 2.807241
3.179649 2.925069 2.241414
2.973084 3.063412 3.499935
2.887668 3.033467 3.189395
2.165840 3.069146 -3.666554
2.634967 3.045298 3.400413
2.750034 3.086685 2.640910
0.518794 1.786847 1.430727
0.518794 1.786847 1.430727
2.334045 3.111730 2.736315
0.196091 1.826167 -0.434822
0.192816 1.824528 -0.432879
0.286772 1.799311 1.552262
0.153042 1.795606 1.165611
1.514616 3.145278 2.308841
0.960048 3.016166 3.171580
0.732462 3.070496 2.944884
-0.010120 3.169484 -3.083761
-0.330039 3.163485 -2.847281
-0.367343 3.204073 -1.513856
-0.565410 3.160964 -2.295363
-0.718088 3.192132 -1.485479
-0.799681 3.170334 -1.980141
-0.246760 3.152268 1.882059
-0.749706 3.189234 -0.274483
5.211522 0.602456 0.240994
5.322447 0.989536 1.184284
5.589355 1.275396 -0.795040
7.426790 2.766567 3.546803
6.754415 2.672838 2.343520
4.923192 2.238426 -3.670192
4.431291 2.150999 -5.194858
4.387470 2.404828 -3.702877
4.998413 2.704461 0.748427
5.606014 3.056148 4.393407
4.955898 2.917579 1.522739
3.998875 2.916405 -3.548680
3.267513 2.573998 -4.169590
3.601154 3.065019 3.236050
3.601154 3.065019 3.236050
1.163617 1.796026 0.650846
0.847943 1.793744 1.091770
0.619250 1.796885 1.058979
2.296857 3.010184 4.134649
2.296857 3.010184 4.134649
1.981881 3.028569 3.346643
1.533810 3.094400 2.587203
-0.405523 1.791956 1.189853
0.166758 3.141194 -3.218672
0.545793 3.117357 2.003009
0.266729 3.108434 3.296161
-0.413681 3.169201 -2.685326
-0.451574 3.191846 -2.642392
-0.236394 3.079402 1.399653
-0.764553 3.181820 -1.549870
-0.807486 3.193062 -0.681842
6.248835 0.899660 -2.909906
12.034366 2.422618 4.112697
11.732432 2.273277 3.788831
5.376059 1.108339 -0.933879
6.444619 1.794159 4.110828
7.132701 2.781593 3.576952
7.141904 2.885930 3.472693
4.596535 2.609053 -0.310414
4.551597 2.821412 -3.301294
3.515981 2.991163 2.745800
3.266576 2.905170 2.177451
1.226664 1.802824 0.726621
3.212452 3.038085 3.521196
2.979654 3.043588 3.015420
0.627111 1.801533 1.192047
2.090590 3.028853 2.721398
0.045818 1.793096 1.242818
0.877227 3.058678 3.213943
-0.977443 1.839477 -0.210728
4.881651 1.622435 -1.374330
6.924610 2.672998 5.319423
4.623778 2.373619 -3.770103
3.081263 2.980007 -3.834898
1.026748 1.777728 1.144530
0.281342 1.785951 1.108345
0.155299 1.801828 1.093956
1.620982 3.075691 2.576527
-0.427551 1.812818 0.906109
-0.052010 3.177740 0.639652
5.284244 2.160115 -1.450903
1.191147 1.810171 0.809702
5.091937 2.094332 0.924939
4.858118 2.493444 0.740523
4.051544 2.802650 -2.223377
-0.274687 1.810953 0.726238
0.168278 1.772707 0.898322
-0.170599 3.183113 -2.759804
-0.446724 3.162133 -2.310082
0.509151 3.138832 -3.088286
-0.723244 1.807988 0.885160
4.261371 2.992512 3.262001
7.095597 2.519651 1.864479
-0.421089 3.191653 -0.816995
5.102680 1.584743 -0.880870
5.338710 0.959261 1.219005
4.143199 3.054683 -2.985899
3.996980 2.718230 -1.832614
5.346865 1.023571 4.048849
-0.758053 3.185580 -0.933502
0.053443 1.804393 0.743862
5.057606 2.474280 0.667999
4.944723 2.234385 -2.733773
4.725136 1.580171 -2.509518
4.448140 2.478941 -2.197752
0.973603 3.089395 3.086400
4.994986 1.642628 -2.300542
1.841911 3.070065 -2.607257
5.177629 1.736622 -1.747850
6.043396 2.534196 4.524188
5.097962 1.331440 -2.048403
7.315183 2.048261 1.611118
-0.777810 1.822338 0.614191
4.655539 2.167281 -3.290220
6.539929 -0.505199 13.302277
6.820384 -0.578535 13.476302
5.123966 -0.072199 -0.007846
4.906966 0.276746 0.238614
13.939523 -0.043855 11.852359
16.147015 -0.020038 7.018248
13.866628 0.476396 12.596230
16.531299 0.401787 6.355944
18.231891 0.725847 2.133459
4.781341 0.908795 7.879990
13.793286 1.196981 12.755242
13.978209 1.086677 12.314537
14.008117 1.334853 12.037815
9.058102 1.360813 14.189446
9.058102 1.360813 14.189446
11.513674 1.435472 12.069565
5.273893 0.890479 -1.359241
5.443984 0.923921 -1.448984
9.516561 1.958343 14.527368
9.238177 2.134347 13.615567
10.813760 2.060149 12.011539
11.852244 1.818124 11.426488
11.485834 2.006843 11.366839
11.815565 2.001426 11.440572
11.762916 1.994518 11.395538
15.572560 2.049847 5.165630
16.492386 2.114081 2.132408
5.728214 1.217030 -0.570939
5.411699 1.129889 -1.093772
4.927658 2.092137 7.482459
7.145211 2.063065 2.348244
4.960445 1.629987 0.690114
5.133570 1.682263 0.489935
3.518656 2.179751 6.401323
6.726692 2.576701 7.868861
7.112977 2.610265 6.168607
5.987536 2.351098 4.526466
5.027076 2.001503 0.865685
5.035592 1.726143 -0.692114
3.492391 2.280604 6.323890
5.338127 2.663844 7.490795
6.039094 2.715241 6.697896
5.861110 2.807921 5.881701
5.066947 2.242091 0.924783
4.930443 1.846503 -2.101229
0.363171 1.468853 0.040838
5.128815 2.168765 -0.730632
4.983939 2.265860 -0.853029
4.718010 1.893881 -2.505007
1.392718 2.479337 6.422690
4.503645 3.026796 7.063742
4.821004 2.497824 -0.214179
4.770144 2.622340 -0.154836
4.247116 2.240805 -1.944991
4.247116 2.240805 -1.944991
1.678210 2.928195 5.520444
2.093920 2.985537 5.725135
0.098163 1.794979 1.072498
0.196611 1.684157 0.168650
4.556079 2.620374 -1.407376
4.418631 2.484957 -2.233931
-0.062013 1.799134 0.241809
0.309935 1.820088 -0.465632
4.266941 2.826880 -1.386943
-0.089911 1.816035 -0.051107
-0.678494 1.815335 0.539361
4.013545 2.980849 -1.773110
0.821694 3.015236 3.706150
-0.911013 1.819490 0.610835
-0.778932 1.825094 0.198940
-0.554664 1.827452 -0.007649
0.548106 3.102570 3.247207
-0.546476 1.841202 -0.684111
3.196345 3.102721 -1.546351
2.928435 3.155093 -1.546463
2.928934 3.090387 -2.155826
2.687316 3.096968 -2.229195
2.508532 3.134869 -2.138957
-0.508657 3.057090 3.247487
-0.015793 3.159603 2.635447
0.129783 3.119703 2.050797
0.553103 3.161002 1.257049
0.564168 3.166688 1.162203
1.245584 3.159856 0.087245
1.636064 3.174714 -0.839428
1.874748 3.171142 -0.841813
-0.813752 3.072280 3.008653
-0.426258 3.139405 2.935997
-0.510988 3.145153 2.858959
-0.088805 3.150827 2.290028
1.925085 3.199176 -1.804961
2.116628 3.170545 -2.213597
1.207017 3.171238 -1.022295
-0.343498 3.077293 1.248624
-0.308874 3.024602 1.185628
0.069573 3.113995 0.607604
0.635872 3.181627 -0.350064
1.524660 3.173248 -2.339935
-0.374390 3.147048 1.282002
-0.156381 3.168166 0.720283
0.291231 3.186837 -0.280693
1.271553 3.193259 -2.028058
-1.011204 3.165898 2.066999
-1.044791 3.170406 2.076929
-1.007294 3.170819 1.958380
-0.263503 3.174932 0.386889
0.302615 3.202561 -0.546697
0.585843 3.186970 -1.162861
-0.866539 3.175079 1.591219
-0.579502 3.183203 0.851097
-0.558568 2.837224 -0.211458
0.919432 3.192660 -2.283418
-0.694942 3.186681 0.593995
-0.517573 3.180956 0.334391
-0.111099 3.202669 -0.463705
0.250480 3.206152 -1.287874
-1.453736 3.187007 1.921280
-1.023708 3.183092 0.907482
-0.935162 3.183655 0.909244
-0.922155 3.185971 0.739413
0.036605 3.210545 -1.137651
0.111654 3.214169 -1.153275
0.551674 3.184447 -2.120443
0.551674 3.184447 -2.120443
38.745416 -4.021534 33.156297
38.622389 -4.009476 33.041601
5.568901 -0.112215 4.530215
4.481753 0.101215 7.300580
14.198131 0.142252 11.476007
16.904869 0.305211 1.273055
13.951288 0.347505 12.640946
16.469504 0.331280 6.271236
13.981109 0.998894 12.274655
14.602608 1.600116 5.990139
5.151980 0.898888 0.349593
17.108875 1.771571 1.722142
5.776637 0.983963 -0.664070
9.183760 2.073531 13.947160
5.224055 1.162762 -1.152881
12.111064 2.378106 3.989457
5.348261 1.441573 -1.768379
1.677036 1.691359 6.682814
1.688551 1.727749 6.679144
2.742632 1.965428 5.852851
6.285432 2.613257 8.240338
0.097647 1.138939 0.229469
0.300111 1.277204 0.162867
5.213950 2.082784 -0.706733
5.203982 2.053625 -0.764210
3.143255 2.600359 6.209278
0.899514 1.816324 -0.013557
-0.658082 1.791899 1.184680
-0.451119 1.813250 0.775183
-0.344436 1.810678 0.457190
3.906553 2.777588 -1.848202
3.964948 2.860720 -1.884598
4.220005 2.845226 -2.339451
-0.703213 1.809407 0.613245
2.958011 3.140048 -1.313391
-0.079731 3.037492 3.473999
2.347690 3.184412 -1.253164
-0.268949 2.723737 1.153215
0.603268 3.164458 1.250513
1.853463 3.171744 -0.955143
1.999030 3.197195 -1.549047
1.972589 3.183550 -1.990177
2.011684 3.181769 -2.156622
0.115356 3.173155 0.575958
0.557358 3.181282 -0.166221
1.748946 3.151224 -2.470102
0.464747 3.170439 -0.364548
0.875681 3.189249 -1.205949
0.856477 3.178076 -1.212263
0.648530 3.184617 -1.144400
-1.289180 3.160873 2.173228
0.798738 3.192009 -1.995137
-0.981363 3.180741 1.251591
-0.427783 3.185596 0.072599
-0.086450 3.180206 -0.348695
0.096545 3.204110 -0.686682
0.762536 3.198987 -2.117495
-1.471496 3.174913 2.020584
-1.346468 3.182360 1.757665
-1.149600 3.180350 1.190310
0.394363 3.195694 -1.688952
0.513033 3.183584 -2.054073
6.253239 -0.508532 13.132604
6.251319 -0.508502 13.132406
39.531548 -3.873222 32.961649
39.531548 -3.873222 32.961649
5.440665 0.139351 0.984518
17.855151 0.452224 1.846151
14.401075 1.013512 11.032508
4.942911 0.812022 -1.646107
12.037065 1.459711 10.773513
5.464622 0.929777 -0.803232
5.181166 0.956667 -1.405609
2.232046 1.260289 6.711047
9.307253 2.038016 14.287628
11.685818 1.902312 11.209511
5.498689 1.143940 -0.468756
0.074973 0.952691 0.255461
5.225963 1.540791 1.142333
5.009615 1.242219 -1.385097
5.024879 1.388197 -1.305164
5.194310 1.332959 -2.489627
4.965041 1.814142 -0.030400
2.304563 2.605988 6.652121
4.174028 2.320157 -1.974600
4.842438 2.514551 -2.628610
2.169036 3.001170 4.864051
4.146652 2.632759 -1.674594
4.098452 2.860884 -1.713756
0.784696 3.026556 4.867966
4.096627 2.906859 -2.291051
0.845079 3.019673 3.712486
-1.032356 1.829654 0.302145
2.437188 3.166289 -0.931130
2.833306 3.156881 -1.590797
0.594085 3.169403 1.214344
0.477145 3.162849 1.282150
-0.520286 2.360862 -0.289434
-0.521680 2.360245 -0.289932
-0.536130 3.155765 2.219710
1.615190 3.162029 -2.217889
0.298228 3.178954 -0.215951
0.379572 3.175136 -0.488145
0.396743 3.194581 -1.396597
16.875462 0.767688 1.632305
14.052079 0.995659 11.766711
10.766305 1.602057 12.686328
0.340330 0.854064 0.110400
5.778058 1.040818 -0.569366
5.621419 1.079130 -0.792620
5.283795 1.019628 -1.932834
5.584772 1.274275 -0.802794
9.291472 2.296458 11.440511
9.755692 2.066949 9.578189
9.810491 2.073910 9.624962
7.331537 2.515313 8.176308
7.372928 2.613717 7.573316
4.795449 1.914039 -1.246051
4.821974 1.919703 -1.246106
5.169860 2.760288 6.223947
2.578160 2.828239 6.039564
2.693295 2.855662 5.696035
1.332677 2.782801 6.200099
0.331285 1.831889 -0.983913
-0.853555 1.812623 0.800120
3.508961 3.069140 -1.424312
-0.927308 1.830212 0.115454
-0.254505 1.851291 -0.968106
0.117064 3.087401 3.413137
1.384142 3.155890 0.241188
-0.030992 3.156571 2.768803
1.277633 3.157621 0.253089
1.296847 3.154086 0.210886
2.337168 3.167559 -1.795464
-0.240952 3.164133 2.240397
0.452749 3.172632 1.207365
1.198676 3.167133 -0.260680
