ply
format ascii 1.0
element vertex 1687
property float x
property float y
property float z
end_header
0.216508 3.197931 -0.830710
0.482105 1.021513 0.010017
0.475491 1.201441 0.066629
-0.131928 1.819645 -0.110144
0.030646 1.823584 -0.228935
-0.208930 1.844063 -0.963991
0.790486 1.820150 -0.165544
-2.068237 3.178688 -0.794915
-1.718457 3.215452 -1.433277
-1.571029 3.216680 -1.511971
0.261693 1.190087 0.143212
0.914202 1.819433 0.187225
1.072293 1.812866 0.268015
0.734893 1.824899 -0.264829
-1.712122 3.201023 -1.496937
0.140822 3.189687 -0.327505
0.084317 0.933247 0.251088
-2.157403 3.171678 -0.511448
0.780479 1.807592 -0.190859
0.874435 3.164439 -0.005560
0.943293 3.153510 0.075688
0.389391 1.168242 0.089706
-0.313014 1.849735 -0.828112
0.665028 1.823121 -0.432022
-1.542394 3.223724 -1.134942
1.605963 3.167285 0.283248
-0.013432 3.191339 -0.334689
-1.472088 3.211665 -1.205884
0.976485 3.167213 -0.085666
-2.153680 3.180259 -0.759071
0.466764 1.579052 0.031573
0.261933 1.403713 0.113808
-0.216948 1.825767 0.186710
0.491845 1.830259 -0.252330
1.302017 1.817396 0.041607
-2.249615 3.199465 -1.299050
-2.252540 3.202562 -1.298468
-2.169713 3.200736 -1.430112
-2.009691 3.204517 -1.244910
1.305887 1.816629 -0.510125
-1.981699 3.215985 -1.463740
-1.424952 3.206365 -1.133060
0.065980 3.196280 -0.309756
-1.617593 3.205396 -1.572649
-1.622343 3.212773 -1.617342
-1.371016 3.205895 -1.703588
-0.861296 3.185514 -1.275846
0.205892 3.200317 -0.505196
1.629666 3.162290 0.328922
-1.250063 3.191397 -1.898391
-0.861034 3.183578 -1.676946
-0.524346 3.193361 -1.483501
-0.524167 3.193606 -1.483639
-0.425778 3.196729 -1.345840
-0.054373 3.215530 -1.173936
0.059217 3.208712 -1.091864
-0.615828 3.187624 -1.705725
-0.628810 3.194695 -1.616437
-0.571880 3.193243 -1.615505
-0.344611 3.203533 -1.532064
-0.324745 3.200919 -1.530002
-0.318118 3.204856 -1.505983
-0.260946 3.198643 -1.398419
-0.229956 3.207109 -1.378365
-0.233776 3.217072 -1.422321
-0.202392 3.214496 -1.428218
-0.190807 3.218802 -1.304046
-0.185445 3.216132 -1.344903
-0.075922 3.217578 -1.209889
-0.073206 3.215092 -1.211714
0.093756 3.213345 -1.182628
0.627398 3.178407 -0.887253
0.241074 3.207886 -1.274648
-2.213550 3.205769 -1.364424
-1.542426 3.209665 -0.813492
-1.526062 3.205233 -1.640140
-1.413025 3.200140 -1.718061
-1.413838 3.204141 -1.605694
0.896385 3.169750 -0.053092
-1.458447 3.201909 -1.808112
-1.462933 3.206460 -1.807656
-1.300832 3.195437 -1.879397
-0.950200 3.171374 -1.801531
-0.652979 3.191402 -1.595409
-0.066750 3.214399 -1.136893
-0.362027 3.198826 -1.438506
-0.362027 3.198826 -1.438506
-0.323784 3.191495 -1.489198
-0.270249 3.211130 -1.437436
1.290057 3.169295 -0.405933
1.748034 1.823278 0.072892
-1.752878 3.212544 -1.368424
-0.485097 3.202049 -0.727684
0.282470 3.190061 -0.375678
-0.197628 3.197091 -1.295099
-0.309637 3.197650 -1.467320
-0.305736 3.214113 -1.487630
-0.270576 3.213020 -1.375674
-0.234075 3.221195 -1.460933
-0.022366 3.220581 -1.232484
1.160123 3.183337 -0.717385
0.482105 1.021513 0.010017
-0.130245 1.807206 -0.021625
-2.935741 3.120322 -0.667355
1.366697 1.817632 -0.147081
-2.277252 3.200619 -1.414632
-0.635726 3.195373 -0.648165
-0.987054 3.185583 -1.827558
-0.632705 3.188769 -1.482941
-0.367160 3.202893 -1.510924
-1.326576 3.202073 -1.433996
0.507852 3.194192 -0.311538
0.476727 3.192038 -0.589083
-0.965075 3.167626 -1.732822
1.131420 1.822364 0.007704
-0.822454 3.190353 -1.686323
1.252945 3.147113 -0.557037
-0.533692 3.199000 -1.325476
-0.535594 3.200668 -1.324536
0.452548 1.810758 0.029855
-0.736856 3.202217 -0.653042
0.330211 3.183522 -0.389068
0.064753 3.215101 -1.181741
0.845912 3.174361 -0.920691
0.045606 3.226351 -0.379287
-1.338002 3.208095 -1.426371
-2.019495 3.188475 -0.065784
-0.865307 3.182514 -1.543551
0.433215 1.362646 0.058443
0.446828 1.394028 0.046410
0.446828 1.394028 0.046410
0.523763 1.392869 0.088454
0.511775 1.404359 0.062761
-2.943672 3.114879 -0.696772
-2.862319 3.155229 -0.351313
0.065841 1.813011 0.162170
-2.876607 3.146295 -0.723035
-2.793117 3.168084 -0.707984
-2.827028 3.136192 -0.977255
-2.228214 3.147582 -0.544971
-0.299376 1.843106 -0.836969
0.246593 1.815484 -0.206427
-2.316449 3.173479 -0.916844
-2.161321 3.174359 -0.543666
-0.193452 1.847150 -0.970583
-1.917798 3.204027 -1.059976
-1.592824 3.198343 -1.149197
-1.546555 3.208283 -1.052842
-1.546445 3.210389 -1.136091
-1.360212 3.213922 -0.992655
-1.359794 3.213530 -0.992887
1.265429 1.815450 -0.087173
-1.730112 3.220779 -1.517324
-1.597182 3.214546 -1.461615
-1.002456 3.192554 -0.738668
-0.977118 3.196852 -0.726497
-1.347004 3.207463 -1.379693
-1.118955 3.198171 -1.280411
-0.671002 3.192875 -0.709260
-0.652757 3.209559 -0.703039
-0.554734 3.197373 -0.653103
-0.500286 3.199418 -0.666510
-1.404130 3.204202 -1.659130
1.307155 1.814514 -0.553575
1.299181 1.817152 -0.521222
1.382205 1.818663 -0.529023
1.401245 1.818734 -0.534617
-1.162936 3.194507 -1.677037
-1.160010 3.201782 -1.564641
-0.601866 3.188761 -1.142852
-0.560644 3.191354 -1.157376
-0.533144 3.192687 -1.102798
-0.213172 3.207048 -0.755166
-0.014800 3.202986 -0.475889
0.042142 3.203458 -0.489494
0.173034 3.199702 -0.384072
0.187806 3.195118 -0.424988
0.207569 3.199550 -0.382798
-0.909627 3.187073 -1.656478
-0.910583 3.173135 -1.673297
-0.896085 3.187046 -1.510113
-0.844001 3.185860 -1.587536
-0.693376 3.197087 -1.434823
-0.685536 3.197390 -1.458525
-0.681788 3.191023 -1.336626
-0.656182 3.184255 -1.288021
-0.522446 3.191558 -1.305853
-0.133673 3.208361 -0.779094
-0.050570 3.207398 -0.736940
0.279271 3.197123 -0.424626
0.424334 3.168075 -0.365879
0.448428 3.162581 -0.388381
0.791703 3.168980 0.012975
0.815786 3.165492 -0.023475
0.848675 3.160480 0.048449
0.898652 3.161588 0.118650
0.897885 3.161180 0.120465
0.909882 3.161571 0.128805
1.188854 3.156000 0.321423
1.209997 3.156126 0.348219
-1.001585 3.177168 -1.818539
-0.972634 3.173664 -1.822332
-0.944091 3.172549 -1.850560
-0.866563 3.175824 -1.788076
-0.809764 3.183825 -1.676770
-0.809117 3.183023 -1.676723
-0.729556 3.188715 -1.561921
-0.510510 3.199102 -1.465986
-0.471011 3.190659 -1.302838
-0.104911 3.210798 -0.949703
0.065634 3.207736 -0.896039
0.358630 3.195803 -0.543010
0.470355 3.160400 -0.446339
0.525106 3.181868 -0.459584
0.499330 3.162276 -0.377971
0.527782 3.185102 -0.405355
0.912046 3.168711 -0.061966
0.973028 3.167688 -0.060084
1.043491 3.157664 0.045697
1.107228 3.156341 0.047216
1.072608 3.156360 0.188081
1.329501 3.155986 0.252965
-0.709271 3.183089 -1.778085
-0.701823 3.183415 -1.688003
-0.612743 3.192246 -1.737102
-0.612719 3.192334 -1.643548
-0.459952 3.199474 -1.478079
-0.459952 3.199474 -1.478079
-0.447642 3.197690 -1.487022
-0.447642 3.197690 -1.487022
-0.425094 3.196664 -1.503547
-0.395634 3.195704 -1.421594
-0.331896 3.197278 -1.472441
-0.336696 3.198581 -1.320680
-0.306754 3.199027 -1.431346
-0.306754 3.199027 -1.431346
-0.283652 3.200382 -1.381056
-0.250795 3.198824 -1.353625
-0.242639 3.202368 -1.393703
-0.245344 3.204301 -1.368889
-0.165654 3.197753 -1.198646
-0.165597 3.197547 -1.199079
-0.169589 3.200219 -1.174764
-0.169589 3.200219 -1.174764
0.003347 3.213056 -1.095348
0.045569 3.209192 -1.107020
0.517393 3.190458 -0.574620
0.972987 3.166939 -0.115832
0.967741 3.171122 -0.222996
1.045807 3.167377 -0.075874
1.044590 3.168826 -0.075545
1.104886 3.164854 -0.041656
1.240872 3.158273 0.120027
1.316711 3.155435 0.232269
1.354427 3.161949 0.250168
-0.458576 3.200147 -1.611460
-0.417097 3.199512 -1.591110
-0.364088 3.202514 -1.529370
-0.333101 3.203490 -1.561168
-0.329164 3.208884 -1.516212
-0.179982 3.211941 -1.410889
-0.179982 3.211941 -1.410889
-0.179217 3.214896 -1.361270
-0.179299 3.215259 -1.361287
-0.150581 3.217883 -1.381423
-0.094339 3.211099 -1.392105
-0.080048 3.212170 -1.395053
-0.059973 3.217027 -1.247620
-0.050311 3.214630 -1.341455
-0.030369 3.215533 -1.214510
-0.030369 3.215533 -1.214510
0.049317 3.212946 -1.234002
0.012699 3.213248 -1.147531
0.075675 3.211945 -1.151590
0.108279 3.209563 -1.104945
0.445277 3.189574 -0.861548
0.470894 3.187981 -0.893730
0.566349 3.186279 -0.719774
0.697487 3.179357 -0.606671
0.882708 3.040467 -0.607916
1.272384 3.155948 -0.017820
1.305642 3.159752 -0.043545
0.017618 3.210178 -1.319055
0.260412 3.200875 -1.090186
0.366134 3.192405 -1.120384
0.499399 3.194290 -1.000049
0.499264 3.194780 -0.999739
0.565652 3.186396 -0.880156
0.619728 3.182670 -0.872349
0.651990 3.180107 -0.861084
0.687753 3.182534 -0.702788
0.939738 3.039126 -0.580546
0.978860 3.069259 -0.661819
1.179507 3.159879 -0.288536
1.209012 3.164287 -0.294383
1.454027 3.160983 -0.053083
1.494620 3.159857 -0.063431
1.515844 3.160920 -0.007366
1.515833 3.160879 -0.007388
1.692620 3.160666 0.083177
0.792792 3.179608 -0.844446
0.769084 3.184890 -0.798136
0.821689 3.182581 -0.752230
1.491674 3.157051 -0.217311
1.518495 3.160282 -0.159887
1.700201 3.157507 0.030689
1.699296 3.159026 0.031531
1.913018 3.160873 0.141820
1.197315 3.171588 -0.544222
1.761017 3.158979 -0.017497
-0.053898 1.068780 0.311601
-2.889627 3.129835 -0.051080
0.533872 1.453833 0.055120
-2.896325 3.152666 -0.760383
-2.857723 3.149568 -0.700707
-2.807279 3.134300 -1.014922
-0.288943 1.838619 -0.806508
-2.333501 3.186241 -0.991633
0.859050 1.813620 0.151937
1.225639 1.812874 0.029649
1.251280 1.813968 -0.029766
-1.500884 3.208393 -1.017615
1.214936 1.817504 -0.110582
-1.711837 3.212444 -1.466596
-1.539375 3.222899 -1.452453
-0.902103 3.192643 -0.775444
1.374213 1.819508 -0.183622
1.374213 1.819508 -0.183622
-0.985669 3.188507 -1.062134
-0.754339 3.192814 -0.719205
-1.201277 3.191603 -1.473798
-1.204619 3.195200 -1.473409
-0.427760 3.196983 -0.708370
1.358415 1.818315 -0.522597
1.387938 1.817184 -0.518564
-0.936901 3.189878 -1.489414
-0.675435 3.187753 -1.449766
0.880622 3.149497 0.128810
-0.897418 3.183585 -1.764302
-0.872721 3.175787 -1.774338
-0.813998 3.182865 -1.780159
-0.812217 3.181667 -1.780396
-0.809701 3.179362 -1.697388
-0.585703 3.185071 -1.396217
-0.541610 3.192380 -1.470446
0.201643 3.205339 -0.766210
0.206300 3.203706 -0.619226
0.880709 3.160053 -0.053290
0.930569 3.163406 -0.074120
-0.748626 3.181920 -1.772419
-0.609840 3.180197 -1.683374
-0.464445 3.201155 -1.544835
-0.385141 3.195538 -1.390661
-0.349420 3.194030 -1.401362
-0.281838 3.202134 -1.427695
0.245914 3.199376 -0.806850
0.867650 3.169255 -0.196631
-0.614845 3.184477 -1.819018
-0.615282 3.185920 -1.819542
-0.355679 3.198763 -1.553580
-0.166776 3.216661 -1.432418
-0.165740 3.220020 -1.367903
0.001665 3.214216 -1.266121
0.134673 3.211925 -1.185421
1.174746 3.166442 -0.186250
0.233972 3.202110 -1.147151
0.512295 3.190323 -1.014703
0.632561 3.184341 -0.901293
0.633076 3.183563 -0.901207
0.786926 3.184122 -0.753684
0.790048 3.180873 -0.652563
1.114019 3.167792 -0.357278
1.225781 3.164622 -0.218426
1.449700 3.161172 -0.093816
-0.335318 3.191922 -1.822661
0.499915 3.191221 -1.114957
0.463603 3.191056 -1.063693
0.777279 3.180426 -0.812434
1.232025 3.159560 -0.404694
1.397312 3.151000 -0.304782
1.487701 3.160075 -0.124254
0.606399 3.187136 -1.100286
0.681657 3.182394 -1.016723
1.740261 3.158982 -0.033760
-2.789717 3.155422 -0.072965
0.429268 1.543898 0.019965
-2.829293 3.158814 -0.818470
-2.185547 3.191710 -0.321457
-0.195408 1.841899 -0.886143
-1.942393 3.212412 -1.232081
-1.153663 3.204315 -0.837165
1.737582 1.814409 0.138803
-0.997433 3.189563 -1.447788
-0.835077 3.189036 -1.431389
0.869315 3.158870 0.053707
-0.883756 3.182282 -1.751422
-0.734280 3.189283 -1.611013
-0.720899 3.186336 -1.816928
-0.720680 3.187036 -1.817236
-0.480949 3.195463 -1.600985
-0.479327 3.193010 -1.601063
0.907778 3.169653 -0.207076
0.907739 3.170740 -0.207209
-0.382814 3.197780 -1.691027
-0.383408 3.198370 -1.690987
0.586959 3.183493 -0.725382
1.044972 3.153456 -0.268073
1.166047 3.165591 -0.246702
-0.295068 3.208011 -1.642152
0.178386 3.217583 -1.242026
0.529838 3.191464 -0.956662
0.406485 3.185713 -1.186923
0.405767 3.191622 -1.186572
0.722282 3.180257 -0.862232
1.658332 3.157712 -0.062918
0.504157 1.351319 0.094389
1.292810 1.816452 -0.086676
-1.158079 3.194051 -1.537970
-0.689806 3.193536 -1.273751
-0.689806 3.193536 -1.273751
-1.086754 3.190522 -1.717363
-0.476198 3.193354 -1.298397
0.813157 3.170396 -0.052390
1.053990 3.147579 -0.014840
-0.436577 3.195544 -1.477497
-0.206035 3.209260 -1.343513
-0.603271 3.186747 -1.904775
0.954830 3.032835 -0.556841
-0.250078 3.210678 -1.621441
-2.851732 3.132226 -0.927765
-2.825830 3.140229 -0.869483
-2.190455 3.127546 -0.503078
-0.984437 3.158491 -1.770405
-0.287746 3.208344 -1.588158
0.564077 3.173269 -0.700280
1.220505 3.161511 -0.138944
0.481564 3.166798 -0.398215
0.995134 1.797177 0.351602
-1.810288 3.212890 -1.348666
0.303397 3.195882 -0.773012
-0.268542 3.211034 -1.452024
-1.602096 3.218846 -0.984424
0.871940 3.170269 -0.008062
0.871940 3.170269 -0.008062
-0.039505 3.208659 -1.218949
-2.288534 3.155776 -0.522559
1.007751 3.179313 -0.280713
-0.236326 3.223935 -1.540345
-2.074251 3.218579 -0.794240
0.535741 1.484897 0.049329
-1.548165 3.208768 -0.985640
-0.061147 3.215593 -1.250807
0.561710 3.186447 -1.067404
-2.242847 3.194312 -0.889189
1.277442 3.163100 -0.305936
-0.062380 1.841755 -0.915384
0.422747 1.808317 0.060313
-0.586024 3.193321 -0.685338
0.457504 1.292705 0.211327
0.481493 1.309004 0.117349
-2.889549 3.126680 -0.368695
-2.841793 3.150172 -0.081667
0.555255 1.531071 0.054909
-2.873108 3.140607 -0.344153
-2.789231 3.192385 -0.218805
0.529991 1.577776 0.037600
0.538842 1.630473 0.039824
-2.262048 3.136901 -0.533707
1.009751 1.813206 0.217360
1.009751 1.813206 0.217360
0.976772 1.812853 0.309418
-2.247144 3.192209 -1.190433
0.709799 1.819175 -0.181495
-1.909447 3.216866 -1.433602
-1.652151 3.205840 -1.076163
-1.312207 3.209737 -1.079457
-1.021978 3.204595 -1.071939
-1.339388 3.202636 -1.672149
-1.339388 3.202636 -1.672149
-0.937044 3.191030 -1.266620
-0.402992 3.214481 -0.717836
-0.381859 3.209446 -0.712520
1.373549 1.816260 -0.534333
1.373485 1.816986 -0.534412
-0.868697 3.196113 -1.412951
-0.268561 3.200612 -0.698912
0.033363 3.197688 -0.432067
-0.614301 3.195464 -1.489408
-0.614301 3.195464 -1.489408
0.136162 3.203761 -0.512185
0.168983 3.195323 -0.435702
0.309195 3.191978 -0.320794
-0.709271 3.183089 -1.778085
-0.541947 3.202433 -1.553817
-0.115785 3.195848 -1.110987
0.186529 3.203695 -0.666516
0.186529 3.203695 -0.666516
0.296677 3.200232 -0.550271
0.352477 3.167260 -0.510224
0.352771 3.184622 -0.469714
0.438144 3.167600 -0.489475
0.854784 3.158017 0.085529
0.889189 3.157370 0.111098
0.907754 3.159791 0.057537
0.907469 3.160371 0.057598
1.025457 3.159166 0.220579
-0.639938 3.192693 -1.821842
-0.408989 3.198230 -1.647196
-0.122310 3.211316 -1.300442
-0.052413 3.206445 -1.096972
-0.024913 3.210836 -1.125919
0.053372 3.207270 -1.001280
0.461904 3.191858 -0.603094
0.536863 3.184042 -0.551519
0.499829 3.170895 -0.479013
0.541474 3.183602 -0.503693
0.855401 3.163703 -0.104275
0.984402 3.157509 0.036521
1.113266 3.158251 0.153292
1.312602 3.159936 0.340857
-0.484059 3.187893 -1.892250
-0.420294 3.186154 -1.742013
-0.195519 3.214562 -1.507078
-0.230835 3.215680 -1.440512
-0.082207 3.215026 -1.394726
0.566494 3.185421 -0.664455
0.588354 3.182401 -0.527347
1.146339 3.160104 -0.006690
1.325312 3.158830 0.270381
1.460916 3.159977 0.337757
1.459066 3.161551 0.339103
-0.274634 3.203743 -1.676476
0.071103 3.209352 -1.305927
0.403046 3.190940 -0.922574
0.566847 3.184508 -0.720378
0.989893 3.169435 -0.242555
1.114487 3.166593 -0.104965
0.464208 1.293472 0.184827
-2.792980 3.162970 -0.318933
-0.164296 1.841841 -0.967045
-2.228076 3.184786 -1.367874
0.761328 1.819896 -0.475651
0.887991 1.811432 -0.422811
0.960162 1.815377 -0.443278
-1.585610 3.211664 -1.330645
-1.292114 3.208395 -0.896467
-1.292114 3.208395 -0.896467
0.612150 1.824293 -0.957853
-1.500276 3.209760 -1.446573
-1.352117 3.208174 -1.227247
-1.034961 3.195799 -1.093899
-1.051650 3.207789 -0.983015
-1.051650 3.207789 -0.983015
-1.281177 3.200931 -1.491512
-1.282501 3.202208 -1.491355
-0.962618 3.188093 -1.131059
-0.675779 3.194282 -1.390651
-0.711284 3.191790 -1.227031
-0.651312 3.192354 -1.254745
-0.955497 3.177304 -1.816490
-0.675144 3.187624 -1.449835
0.832535 3.162381 0.146958
-0.640291 3.189731 -1.698151
0.391273 3.165917 -0.446611
0.802993 3.169102 -0.007436
-0.676165 3.183214 -1.820855
-0.676205 3.183100 -1.820775
-0.661529 3.185965 -1.881840
-0.589101 3.188004 -1.714515
-0.399120 3.199002 -1.613327
-0.338164 3.197221 -1.440507
-0.344947 3.205580 -1.439879
-0.289552 3.201770 -1.456912
0.961886 3.165917 -0.098156
0.930907 3.162375 -0.009014
-0.316331 3.213279 -1.563238
-0.312143 3.216597 -1.574539
-0.305642 3.208725 -1.619142
-0.286924 3.203966 -1.617238
-0.270192 3.216049 -1.652576
-0.277037 3.213164 -1.611086
-0.248280 3.209963 -1.498247
-0.182964 3.220225 -1.465704
-0.107676 3.215163 -1.451697
-0.166379 3.214548 -1.387765
-0.060957 3.215811 -1.250908
-0.050260 3.218598 -1.299997
1.187417 3.161440 0.068816
-0.445270 3.191098 -1.887693
-0.408513 3.197823 -1.840935
-0.265496 3.206517 -1.694558
0.192728 3.205322 -1.151012
0.345408 1.295049 0.086767
0.408143 1.425699 0.044281
-2.824586 3.171449 -0.239442
-2.236988 3.202101 -1.387072
-2.239268 3.203424 -1.386750
-1.824114 3.192146 -1.065679
-1.964187 3.204282 -1.414371
-1.496113 3.209950 -1.239967
-1.497580 3.211153 -1.239613
-1.218148 3.194921 -1.675291
-0.674454 3.194844 -1.520508
0.236533 3.197690 -0.481434
0.694038 3.164966 0.050123
0.102656 3.203385 -0.707706
1.047697 3.159484 0.222106
-0.651155 3.185763 -1.828575
-0.428527 3.197153 -1.644203
-0.093522 3.207231 -1.128148
-0.047709 3.215072 -1.154895
-0.377048 3.187368 -1.735882
-0.304346 3.220117 -1.538493
-0.274373 3.204887 -1.679093
0.475674 1.361166 0.070573
0.515665 1.374671 0.161946
-2.794562 3.155031 -0.239840
-2.800322 3.158423 -0.237391
-1.660158 3.202107 -1.082641
-0.868301 3.187594 -1.542241
-0.433616 3.192807 -1.126603
0.246808 3.194172 -0.363747
0.275875 3.196089 -0.338317
-0.590777 3.191787 -1.594213
0.877408 3.170928 -0.151330
0.913195 3.169104 -0.035226
1.001453 3.162354 -0.069322
1.341545 3.159287 0.277780
-0.345131 3.194878 -1.766468
-0.188352 1.813251 0.055781
-2.359664 3.184447 -1.036808
-2.291972 3.190192 -0.998506
1.292955 1.816581 -0.086037
-0.977040 3.194183 -1.492177
-0.922294 3.199878 -1.390745
-0.912061 3.174154 -1.805094
-0.046426 3.210429 -1.029566
1.005853 3.158823 0.114372
1.004607 3.159117 0.114792
-0.346774 3.200648 -1.583782
1.366310 3.162432 0.309500
-0.203025 3.197240 -0.809862
-0.326576 3.207483 -1.530283
-0.295402 3.205545 -1.414361
0.515698 1.362606 0.122642
0.995493 3.155563 -0.013591
-0.964384 3.170496 -1.732203
0.352302 3.194374 -0.573876
0.535387 1.822625 -0.426028
0.871476 3.167852 -0.003255
-0.139959 3.220946 -1.389207
-2.841859 3.173575 -0.956569
-2.842809 3.174040 -0.956376
-0.122744 1.840410 -0.881173
-0.139347 3.193776 -1.064935
0.101883 3.199067 -0.366256
-0.081862 3.210335 -1.156685
0.510645 1.343558 0.185136
-2.831138 3.144829 -0.310463
-2.913054 3.114264 -0.638292
-2.903705 3.118570 -0.613902
-2.844372 3.162418 -0.746974
-2.174294 3.185345 -0.327183
-1.694238 3.188118 -0.299704
-1.581358 3.189034 -0.411905
-2.257828 3.172639 -1.352559
-2.164192 3.198238 -1.430669
-1.793046 3.203146 -1.102587
-1.736803 3.210253 -1.134153
-1.447645 3.216201 -1.014189
-0.912217 3.183224 -0.444822
-1.699390 3.206492 -1.430941
-1.072939 3.207892 -0.994633
0.639209 3.149493 0.251157
0.639209 3.149493 0.251157
-1.559734 3.203317 -1.724396
0.026071 3.199388 -0.267619
0.882489 3.155198 0.177146
-0.738627 3.194433 -1.502993
-0.724207 3.190590 -1.400379
0.380889 3.191985 -0.496072
0.409666 3.191895 -0.526331
0.905648 3.164639 -0.115066
-0.969861 3.192516 -1.815339
0.865739 3.171994 -0.195576
0.909676 3.168696 -0.130148
1.067234 3.163457 -0.105693
1.296403 3.160800 0.073944
-0.838925 1.831336 -0.311057
0.520324 1.655486 0.048813
-2.149862 3.183274 -0.765640
-2.043868 3.193936 -0.761163
-1.898489 3.187244 -0.697016
-1.785830 3.188526 -0.991532
-1.706942 3.191490 -1.000826
-1.505314 3.201739 -0.751728
-1.334965 3.193781 -0.556761
-0.948409 3.185915 -0.325486
-0.447120 3.177494 -0.317881
-0.140929 3.198837 -0.499040
-0.999103 3.190226 -1.448515
0.082663 3.201209 -0.508379
-0.922148 3.165938 -1.712914
0.995035 3.167366 -0.145594
1.100050 3.155051 -0.005556
-0.023970 3.219095 -1.159452
0.052872 3.209531 -1.047963
0.041673 3.213172 -1.191527
0.479027 0.946903 0.002398
0.562305 1.458239 0.075242
-2.055074 3.189579 -0.655345
-2.326879 3.195371 -1.462156
-1.579293 3.220762 -1.471995
0.187826 3.174217 -0.042469
-0.131266 3.198539 -0.480411
-1.201230 3.184582 -1.678981
-0.912125 3.186591 -1.494226
0.614909 3.184644 -0.687123
1.162269 3.161331 -0.097109
0.488289 1.333091 0.161005
-2.103623 3.188091 -0.545638
-1.599660 3.203008 -0.935301
-1.764627 3.191317 -1.489117
-0.140713 3.184194 -0.197471
0.487386 3.175262 -0.265949
0.554441 3.178933 -0.512840
-0.564072 3.193943 -1.548352
-0.111860 3.215774 -1.238090
-2.288628 3.178422 -0.888804
-1.826301 3.202108 -1.237706
-0.929243 3.194853 -0.836778
-1.337106 3.213554 -1.217382
-2.805194 3.166984 -1.017645
-2.848071 3.160511 -0.860230
-2.233261 3.189863 -1.331962
-1.695239 3.210254 -1.243922
0.693129 3.169710 0.086344
-0.243877 3.197083 -1.334638
1.303435 1.815511 0.269738
-1.010485 3.181715 -0.346746
0.694488 3.148395 0.348469
-0.326788 3.202277 -0.769903
-1.666420 3.215060 -1.244818
-1.653309 3.209424 -1.060456
0.882701 3.022534 -0.559371
-2.340044 3.181189 -1.074246
-1.911613 3.208620 -1.313262
1.027905 3.166703 -0.167438
0.349374 3.188037 -0.329833
-0.734874 3.193990 -1.454008
-0.182439 3.186153 -0.123214
-1.590491 3.228913 -1.531314
0.366146 1.627902 0.051879
0.000681 3.213122 -1.179219
-0.100905 3.185263 -0.254038
1.366798 1.809171 -0.145300
0.436996 1.467697 0.031316
-0.645478 3.187779 -0.929438
0.942533 3.168663 -0.152913
-0.350467 1.832924 -0.374207
0.521280 3.190683 -0.618458
0.548036 1.474598 0.059107
-0.704897 3.199191 -0.736019
0.528261 1.616929 0.045239
-1.864156 3.204266 -1.211383
-1.254089 3.233979 -1.149200
0.412437 1.313418 0.084534
0.500645 1.666904 0.049269
0.772571 1.822526 -0.502773
0.772571 1.822526 -0.502773
-2.838908 3.181317 -0.660469
-2.838908 3.181317 -0.660469
-1.871396 3.188788 -0.099422
-2.307896 3.205305 -0.998738
-1.570904 3.194686 -0.635944
-1.610173 3.198069 -0.510011
-1.065966 3.183427 -0.264162
-1.956490 3.220916 -1.269379
-1.395608 3.203753 -0.771064
-1.706419 3.206815 -1.381091
-1.290482 3.201680 -1.140495
-0.159515 3.186265 -0.096891
-1.342887 3.202765 -1.380685
-0.547146 3.176938 -0.734072
-0.106281 3.182753 -0.394185
-0.014908 3.191789 -0.333563
0.641716 3.157587 0.238197
-0.569226 3.188160 -1.220299
0.695854 3.171703 0.024729
0.113878 3.199618 -0.787056
-0.285137 3.195896 -1.224853
0.178759 3.205989 -0.840883
1.316629 3.157273 0.193872
-2.557617 3.195832 -0.011135
0.866487 1.814901 -0.444910
-2.013374 3.174283 -0.786820
-1.681904 3.192216 -0.454773
-2.244792 3.197990 -1.299704
-1.567447 3.195281 -0.520656
-1.892665 3.204593 -1.230787
-1.505487 3.202236 -0.751543
-0.162762 3.125076 -0.100826
0.019203 3.196896 -0.401857
0.278059 3.192783 -0.339303
0.306485 3.199156 -0.402235
0.480654 3.186292 -0.304538
1.138896 3.158514 -0.030011
0.350139 1.602855 0.055263
0.740164 1.820032 -0.248218
-2.802508 3.170738 -0.936032
-0.980957 3.176533 -0.315851
-1.778011 3.211487 -1.230320
-0.717790 3.195428 -0.416083
0.397335 3.030155 0.332631
-0.771715 3.185895 -0.970024
0.154076 3.194743 -0.167003
0.151023 3.186630 -0.140479
-0.908209 3.174294 -1.729330
-0.649773 3.191199 -1.447552
0.374661 3.181788 -0.512614
-0.208326 1.844611 -0.964424
-1.776037 3.174659 -0.240113
-1.743946 3.186719 -0.170625
-1.483218 3.189567 -0.159793
-1.324400 3.185069 -0.161383
-0.799597 3.181734 -0.675603
-0.384095 3.185192 -0.314861
0.640275 3.163459 0.116733
-0.978517 3.194837 -1.492183
-0.725533 3.189997 -1.448776
0.475950 1.015877 0.014601
0.420931 1.799377 0.095203
-2.145616 3.179270 -0.753553
-1.449335 3.209461 -0.962265
0.462116 3.040350 0.289898
-0.169528 3.178682 -0.074753
0.262431 3.192458 -0.170130
0.718126 3.048444 -0.157315
0.793050 3.162226 0.040840
0.968982 1.815942 0.060089
-2.253673 3.199550 -0.206862
0.238789 3.194164 -0.102438
0.418068 3.170466 -0.465085
0.058394 3.198524 0.008328
0.904820 3.159762 0.227822
-0.666785 3.191610 -1.554215
-0.111780 1.838544 -0.894088
0.947419 3.151835 0.071458
1.365433 1.810330 -0.144005
-0.156629 3.198058 -0.526080
-2.267168 3.192170 -0.962334
0.824244 1.812980 0.074934
-2.823826 3.128155 -0.930271
0.520829 1.388937 0.078849
-2.789779 3.148316 -1.035354
-0.192943 1.846342 -0.970422
-2.256582 3.196128 -1.403127
-2.181670 3.206125 -1.348877
0.431899 1.821805 -0.231924
0.429762 1.824340 -0.231035
0.959424 1.812059 0.252374
-1.662474 3.210365 -1.346286
-1.548334 3.194562 -1.661449
-1.003345 3.188551 -1.425615
-0.602092 3.189494 -1.142750
-0.475202 3.192243 -1.275844
-0.235533 3.214894 -0.817938
1.271062 1.817032 -0.584510
-0.696679 3.194102 -1.860864
-0.346657 3.188683 -1.126312
-0.346657 3.188683 -1.126312
-0.051676 3.208787 -0.736790
-0.331820 3.197547 -1.472254
-0.192191 3.196001 -1.254385
0.149551 3.206540 -0.729257
0.149612 3.205964 -0.729110
0.196775 3.202573 -0.742231
-0.352941 3.191867 -1.814860
-0.309902 3.214572 -1.589002
-0.048953 3.217709 -1.300323
0.106083 3.207609 -1.154461
0.850783 3.156531 0.046525
0.849728 3.157838 0.047235
0.899883 3.166374 -0.041440
0.897327 3.150831 0.091721
0.921720 3.161190 0.176056
-0.301256 3.197165 -1.834916
-0.251739 3.206487 -1.749943
-0.214197 3.204003 -1.787627
-0.223950 3.207546 -1.717109
-0.173387 3.204362 -1.711243
-0.043713 3.207548 -1.495017
-0.043713 3.207548 -1.495017
0.151194 3.205794 -1.284806
0.238890 3.198671 -1.052382
0.238890 3.198671 -1.052382
0.549477 3.185259 -0.639518
0.554316 3.187730 -0.654070
0.993175 3.155267 -0.003117
1.103068 3.159535 0.190774
1.199985 3.154592 0.179955
-0.013056 3.200914 -1.620132
0.034358 3.208025 -1.591172
0.203243 3.208679 -1.331298
0.203243 3.208679 -1.331298
0.217600 3.205267 -1.223169
0.262424 3.207945 -1.316103
0.271243 3.204052 -1.273704
0.277449 3.203876 -1.212143
0.277217 3.204105 -1.211945
0.311135 3.204332 -1.218408
0.359045 3.191276 -1.159094
0.464794 3.192697 -1.081108
0.588722 3.182755 -0.898224
0.990411 3.168683 -0.242957
1.001430 3.170355 -0.247558
1.063035 3.166296 -0.088773
1.081158 3.164622 -0.052095
1.099815 3.160307 -0.071697
1.141363 3.163127 -0.096786
1.164177 3.158151 0.026765
1.197154 3.154808 0.094888
1.310712 3.149227 0.214218
1.342986 3.160311 0.155751
1.363615 3.162864 0.267262
1.409360 3.161418 0.263431
1.401538 3.161049 0.315008
0.183321 3.206042 -1.482975
0.207333 3.200624 -1.471137
0.349113 3.202319 -1.309560
0.370076 3.203103 -1.322035
0.410652 3.199825 -1.238891
0.551437 3.187935 -1.044254
0.567021 3.186347 -1.113596
0.652301 3.178586 -0.860492
0.743381 3.176173 -0.779703
0.807225 3.180358 -0.706624
0.904104 3.049319 -0.642793
1.113294 3.166753 -0.202978
1.164565 3.164261 -0.182536
1.232063 3.156722 -0.150107
1.238481 3.157098 -0.029180
1.298469 3.162028 -0.004716
1.308694 3.160534 -0.029548
1.495152 3.160377 0.163907
1.568937 3.162914 0.332699
0.781184 3.180083 -0.881029
0.478829 1.298902 0.164002
-2.816770 3.146916 -0.292125
0.488806 1.335379 0.097412
0.522149 1.409171 0.191989
-2.788984 3.142847 -0.963300
-2.795283 3.145586 -0.962649
-2.356130 3.182701 -0.982839
-1.681839 3.200199 -1.075540
1.042041 1.818381 0.229805
-1.453328 3.208472 -1.280779
-1.537412 3.210346 -1.907252
-1.505545 3.203921 -1.874039
-0.942052 3.157625 -1.712217
-0.885862 3.183492 -1.465474
-0.965146 3.142780 -2.024018
-0.885567 3.177350 -1.722208
-0.339980 3.193581 -1.079481
-0.771309 3.172482 -1.961305
-0.755348 3.175404 -1.953664
-0.654567 3.193695 -1.794248
-0.670373 3.175435 -1.931070
-0.387125 3.199588 -1.640784
-0.092915 3.206287 -1.127993
0.283737 3.199425 -0.599243
-0.460723 3.190907 -1.909585
-0.412311 3.191909 -1.913483
-0.387396 3.191950 -1.809230
-0.321336 3.202381 -1.613534
-0.143822 3.216440 -1.401400
0.833530 3.171070 -0.130088
0.998208 3.157679 0.147974
-0.227714 3.213224 -1.679117
-0.086628 3.214223 -1.505094
-0.041031 3.214063 -1.514850
-0.021348 3.210397 -1.450450
-0.192281 3.204952 -1.829043
0.303281 3.208022 -1.253001
0.306686 3.203809 -1.253475
0.315269 3.204330 -1.182601
0.333799 3.202461 -1.217566
0.395468 3.183162 -1.175864
0.418426 3.196876 -1.120932
0.464150 3.190526 -1.063535
0.657233 3.174575 -0.730247
0.719184 3.184202 -0.716819
1.284940 3.159428 0.064354
1.287884 3.160751 0.150943
0.280856 3.210807 -1.337978
0.281667 3.209363 -1.338344
0.403428 3.197550 -1.221787
0.803989 3.185243 -0.766497
0.822954 3.182602 -0.766211
0.822954 3.182602 -0.766211
1.138160 3.165720 -0.302698
-1.526187 3.198260 -1.304113
-1.025256 3.174629 -1.911725
-0.954901 3.175454 -1.801956
-0.422217 3.206705 -1.551307
0.002687 3.213080 -1.145402
-0.360594 3.194164 -1.931176
-0.206175 3.199202 -1.811108
-0.182976 3.208685 -1.669379
0.478142 3.198947 -1.154341
0.642631 3.183409 -1.020258
1.143873 1.814794 0.150211
-1.657562 3.209337 -1.908611
-0.893435 3.171168 -1.930476
0.091526 3.216144 -1.382081
1.024703 3.166556 -0.049952
0.634976 3.179482 -0.844139
0.685777 3.182452 -0.999940
0.554112 1.467234 0.086131
-2.157135 3.189205 -0.975574
-1.364613 3.198222 -1.885799
-0.840706 3.171257 -1.845671
-0.362440 3.193191 -1.827767
-0.364012 3.194063 -1.827732
-0.108893 3.211002 -1.410841
-0.109519 3.211515 -1.411022
0.112427 3.212031 -1.214727
0.352361 3.197899 -1.200280
1.101869 3.163317 -0.101782
0.314443 3.197595 -1.301006
-0.143406 1.826533 -0.103201
1.239570 1.821004 -0.091534
0.085269 3.207992 -1.434490
0.199845 1.816037 -0.430869
0.199845 1.816037 -0.430869
-0.205984 3.204950 -1.666209
-2.075068 3.201791 -1.421201
0.392418 3.185842 -1.084307
1.264619 3.169229 -0.136498
-0.201538 3.190668 -1.737549
1.052678 3.171635 -0.010334
1.038352 1.819515 -0.461102
-0.153946 1.826432 -0.120883
-0.218469 3.197023 -1.335771
-0.745922 3.188572 -1.384367
0.663134 3.191187 -0.764440
1.001647 1.812019 0.241536
0.738357 3.182815 -0.709128
-1.875382 3.213185 -1.250831
0.699658 3.179927 -0.628697
-0.449319 3.183866 0.114854
0.167428 3.203879 -1.150560
-0.745854 3.188773 -1.384019
0.229557 1.659599 0.137498
-2.163915 3.192044 -0.755200
-3.295805 3.095276 -0.891773
0.504290 1.351236 0.175968
-2.956688 3.122307 -1.590610
-2.845582 3.133131 -1.691698
-2.877325 3.138481 -1.538675
-2.865653 3.133347 -1.538646
-2.318801 3.203243 -1.428473
-2.316170 3.201350 -1.428878
0.879499 1.810899 0.319035
-1.561548 3.205342 -1.954753
-1.555022 3.207769 -1.937242
-1.656390 3.198968 -1.836302
-1.657753 3.200285 -1.836601
-1.551436 3.202938 -1.888366
-1.509555 3.226529 -1.894004
-1.378168 3.188649 -1.900485
-1.328499 3.196694 -1.912589
-0.886185 3.177670 -1.722146
-0.894977 3.167880 -2.042009
-0.894977 3.167880 -2.042009
-0.167966 3.205759 -1.840513
0.233395 3.213256 -1.241735
0.304952 3.195922 -1.167232
-0.242476 3.171500 -2.109918
-0.134097 3.183670 -2.119471
0.122849 3.198924 -1.718130
0.096736 3.204488 -1.581992
0.089430 3.197780 -1.677518
0.658728 3.164326 -0.757519
0.660176 3.163277 -0.757692
0.059420 3.193067 -1.854790
0.094347 3.202658 -1.789346
0.532726 3.189319 -1.169500
1.244407 3.160322 -0.138360
1.268390 3.164425 -0.270033
0.501853 3.191587 -1.538661
1.069305 3.177092 -0.751543
1.424761 3.159094 -0.182129
1.526276 3.154989 -0.339581
1.744786 3.158375 0.051870
1.748410 3.159686 0.171529
0.490365 1.368133 0.212943
-2.611017 3.170385 -1.554433
0.424501 1.814109 0.057579
-2.006041 3.204102 -1.250319
-1.647631 3.222217 -1.835101
-1.370394 3.204494 -1.844286
-1.200352 3.199859 -1.631302
-1.197296 3.197112 -1.631180
-1.157660 3.192630 -1.539033
-0.832104 3.169253 -2.014761
0.254387 3.203203 -1.261575
-0.078907 3.148069 -1.927973
-0.039895 3.195829 -1.867571
0.010775 3.204475 -1.840124
1.274693 3.156859 -0.045117
-0.098351 3.169309 -2.117243
0.428299 3.200924 -1.321781
-2.905862 3.129552 -1.563736
-1.454092 3.204785 -1.874081
-1.004821 3.168902 -2.104606
-0.676072 3.195768 -1.641776
-0.676072 3.195768 -1.641776
-0.351206 3.192425 -1.862911
0.523101 3.188152 -0.613741
-0.360629 3.171461 -2.107838
-0.349334 3.176429 -2.079325
0.092687 3.208883 -1.361581
0.094121 3.208123 -1.362123
0.141256 3.211052 -1.200798
0.333405 3.195334 -1.161168
-0.260441 3.164631 -2.142945
1.039839 3.177078 -0.754878
1.102873 3.171175 -0.530253
0.528717 1.393876 0.132949
0.555871 1.400985 0.075490
-2.158781 3.192933 -0.975157
-1.616422 3.198127 -2.003152
-0.584020 3.190601 -1.340124
-0.211270 3.199621 -1.874946
-0.117220 3.202750 -1.817073
0.896951 3.177318 -0.775607
1.383521 3.156849 -0.248468
-0.984588 3.192145 -1.826859
0.940805 3.166961 -0.033836
0.539931 3.190453 -0.685561
1.318794 3.170351 -0.341554
-0.214408 3.155694 -2.002891
1.278301 3.160179 0.263562
-2.711938 3.199092 -0.123681
-0.371331 1.831663 -0.613597
0.294903 3.199658 -1.144082
0.884889 3.020620 -0.569018
0.669642 3.178406 -0.767697
1.359620 1.817690 -0.092877
-1.678145 3.236293 -1.059511
-0.026017 3.214375 -1.189387
0.583822 3.189943 -0.680076
1.076996 3.155354 0.027750
-0.113145 1.840274 -0.858882
-0.194554 3.207901 -0.869656
-0.026408 3.214896 -1.189355
-2.075825 3.189869 -0.712753
1.399574 1.820560 -0.046508
-0.151435 3.204431 -1.017042
-0.151435 3.204431 -1.017042
0.493623 1.500749 0.031676
0.457169 1.587386 0.021809
0.877004 1.806433 0.318732
0.595761 1.818330 -0.175840
-3.001718 3.118649 -1.638716
-1.847435 3.193450 -0.929781
-1.426143 3.209722 -1.093580
-1.429943 3.212270 -1.092525
-1.377340 3.199802 -1.359815
-1.513385 3.210618 -1.874777
-1.001672 3.205107 -0.976851
-0.087247 3.180474 -0.382456
-0.119013 3.187493 -0.175924
-0.951579 3.192139 -1.652446
-0.832160 3.184309 -1.516576
-0.516233 3.190192 -1.166208
0.062838 3.196987 -0.451607
-0.933961 3.160849 -1.934322
-0.514341 3.192975 -1.390947
0.666864 3.160580 0.123731
-0.692581 3.187826 -1.859886
-0.406075 3.192634 -1.384315
0.399799 3.195020 -0.535859
0.960661 3.154129 0.182302
-0.320317 3.196169 -1.484027
-0.233135 3.216829 -1.458922
-0.248902 3.203205 -1.406034
0.481502 3.184977 -0.514997
0.477676 3.189664 -0.512625
0.524704 3.179441 -0.459889
0.089039 3.212960 -1.337466
0.279068 3.198967 -1.106763
1.327602 3.157309 0.299614
-0.135600 3.206074 -1.657828
0.057922 3.211818 -1.432670
0.240336 3.205175 -1.237784
0.447927 3.193410 -1.081238
0.530247 3.191069 -0.956454
0.617183 3.184315 -0.827285
0.657347 3.178206 -0.825970
0.925652 3.042365 -0.621661
0.936510 3.031313 -0.547185
-0.002176 3.205767 -1.676288
0.037082 3.204633 -1.638918
0.299267 3.206693 -1.306740
-2.138859 3.183170 -0.696331
-1.809932 3.207850 -1.206518
1.510568 1.828127 -0.243040
1.510568 1.828127 -0.243040
-0.614249 3.196167 -0.695906
-0.080173 3.197493 -0.213403
-0.904556 3.185246 -1.604036
-0.827712 3.181757 -1.726727
-0.366898 3.199310 -1.527376
0.041751 3.211297 -1.090318
0.446508 3.190649 -0.891663
1.163604 3.171882 -0.240348
-0.199344 1.834927 -0.319389
-1.672701 3.221432 -1.603328
-1.432137 3.212530 -1.796944
-1.438579 3.203133 -1.687458
-0.109769 3.185570 -0.245465
-0.977133 3.154122 -1.771349
-0.721112 3.186631 -1.448924
-0.186724 3.203371 -0.620804
-0.281371 3.198653 -1.706101
0.912390 3.051468 -0.644433
-2.840866 3.132420 -0.936359
-2.155544 3.186894 -0.975660
-0.885738 3.190962 -1.281413
0.054142 3.197184 -0.380281
-0.752561 3.188106 -1.561215
0.725387 3.036504 -0.169145
0.818458 3.173519 -0.022348
-0.639422 3.183151 -1.903381
-0.639422 3.183151 -1.903381
-0.331220 3.196877 -1.783132
1.059204 3.166528 -0.109078
0.955266 3.053365 -0.617348
-1.582197 3.203664 -0.974981
0.844460 3.160357 0.204106
-0.453930 1.839546 -0.701703
-1.355203 3.206267 -1.883036
0.224360 3.192937 -1.265426
1.160111 3.167072 -0.217703
1.388321 3.151866 0.230927
0.068501 3.202665 -0.398474
-0.569019 3.197118 -1.480502
-1.588536 3.213110 -1.699061
-1.586061 3.211814 -1.699309
1.138157 3.137799 0.037366
1.058167 3.161553 -0.012251
-2.371652 3.174815 -0.902337
0.145627 3.188471 -0.432237
0.460832 3.187776 -0.545934
0.378680 3.192869 -0.535357
-2.778237 3.167581 -1.007656
0.514927 1.399575 0.196664
0.489260 1.641775 0.047475
0.786946 1.816874 -0.005963
-2.015240 3.207258 -1.246796
-1.406202 3.197989 -0.753587
1.305778 1.817466 -0.553709
-1.324574 3.201274 -1.091899
-1.332282 3.210448 -1.044169
-1.532715 3.212410 -1.640792
-0.788631 3.188097 -1.003203
-1.451790 3.205359 -1.859032
-0.726099 3.186442 -1.201617
-0.958777 3.174828 -1.647789
-0.709821 3.178036 -1.311536
-0.005561 3.189454 -0.408166
-0.010424 3.189677 -0.335836
0.111693 3.188077 -0.244876
0.686378 3.156129 0.313634
-0.648478 3.170445 -1.842548
-0.620478 3.190240 -1.820161
-0.662609 3.195374 -1.689967
-0.518851 3.199195 -1.531365
-0.225080 3.195940 -1.302264
-0.433090 3.202713 -1.647448
-0.294715 3.210165 -1.487970
-0.117166 3.214977 -1.335340
-0.117443 3.215206 -1.335319
-0.413145 3.192179 -1.914109
-0.325577 3.214569 -1.795305
-0.295523 3.205899 -1.633788
0.042838 3.212982 -1.310418
0.077115 3.213885 -1.192556
0.073581 3.220651 -1.162597
0.185621 3.201914 -1.167604
0.428096 1.809888 0.054561
-2.559141 3.175084 -1.552243
-2.277656 3.175341 -1.668973
-1.487101 3.205779 -1.057574
-1.160359 3.183908 -0.605566
-1.161367 3.185952 -0.606419
-1.582318 3.212633 -1.644620
-1.341307 3.209030 -1.146051
-1.438579 3.203133 -1.687458
-1.240472 3.193451 -1.479984
-0.063724 3.170239 -0.356619
-0.704724 3.192630 -1.360682
0.093786 3.191011 -0.205112
0.735637 3.156861 0.354708
-0.863849 3.166743 -1.865242
0.215193 3.197073 -0.340231
0.219647 3.194016 -0.342784
0.222479 3.188739 -0.264696
0.352564 3.175635 -0.313445
-0.497651 3.193850 -1.481731
0.739013 3.039494 -0.149100
0.700928 3.159873 0.042618
0.885633 3.154742 0.176567
0.946535 3.159303 0.204538
-0.271687 3.207636 -1.494045
-0.345934 3.182895 -1.831021
0.515749 3.188631 -0.582530
-0.980938 3.176322 -1.847983
-0.760898 3.189676 -1.505614
-0.252163 3.190553 -0.636119
-0.017467 3.190080 -0.304271
0.326964 3.166906 -0.510931
0.795915 3.162793 0.147123
0.478995 1.337659 0.167773
-1.914274 3.186275 -1.475096
0.458647 3.038982 0.289774
-0.265857 3.205538 -1.686203
-0.116866 3.216777 -1.372009
0.297106 1.828830 -0.453603
-2.154918 3.182220 -0.784927
0.791763 3.162396 0.041321
0.793044 3.160317 0.167986
-0.254901 3.197456 -1.373619
-0.131076 3.198171 -1.185375
-2.844227 3.158938 -0.861547
-0.342072 3.209420 -0.757707
0.318126 3.175655 -0.486039
0.747356 3.165414 0.013117
1.124469 3.161488 0.041069
-2.273370 3.170013 -1.648286
-0.163256 3.187725 -0.422199
-1.231576 3.205443 -1.158011
-1.536408 3.188675 -0.472412
-0.072747 3.192859 -0.270260
-0.007857 3.216477 -1.176400
-1.523744 3.208596 -1.140779
0.461561 0.890531 0.038810
0.461561 0.890531 0.038810
-2.957162 3.122265 -1.590408
-0.172891 1.848020 -0.964857
-1.998499 3.208433 -1.384767
-1.430261 3.199597 -1.370920
-1.415240 3.187599 -1.371064
-1.441613 3.192257 -1.272185
0.902593 1.812060 0.145958
1.027970 1.815719 0.216653
1.027970 1.815719 0.216653
-1.511182 3.210036 -1.875258
-1.460962 3.196740 -1.838455
-1.524631 3.196634 -1.827626
-1.462111 3.211273 -1.813345
-1.322729 3.185260 -1.855642
-1.262334 3.186805 -1.871526
-0.986011 3.137372 -1.969344
-1.039944 3.159508 -1.934460
-0.922522 3.163317 -1.646093
-0.895605 3.184376 -1.289965
-0.948732 3.148580 -2.014577
-0.938082 3.164078 -2.046670
-0.924623 3.162413 -2.013157
-0.909067 3.165914 -2.004855
-0.909067 3.165914 -2.004855
-0.857902 3.168242 -2.024064
-0.821930 3.181184 -1.965443
-0.604114 3.190427 -1.594887
-0.391329 3.193945 -1.310811
1.363126 1.817527 -0.534601
-0.380075 3.194743 -1.321135
-0.227404 3.197743 -1.302162
-0.121960 3.214423 -1.406601
0.163142 3.207241 -0.668214
-0.387026 3.187124 -2.093435
-0.007393 3.213264 -1.445462
0.029169 3.211621 -1.291912
0.031688 3.207983 -1.291709
0.454277 3.174161 -0.495763
0.734631 3.032926 -0.161814
-0.203335 3.178078 -2.023875
-0.024291 3.206082 -1.796707
0.017444 3.204637 -1.692623
0.440812 3.195229 -0.553639
0.790059 3.158168 0.116008
0.789599 3.158918 0.116246
0.796778 3.158597 0.128052
0.811992 3.160089 0.122791
-0.012891 3.197410 -1.858090
0.022089 3.191139 -1.871502
0.054376 3.202012 -1.869092
0.017787 3.197906 -1.783221
0.101152 3.202289 -1.753870
0.148813 3.203267 -1.632526
0.156700 3.203790 -1.609458
0.197358 3.203113 -1.586344
0.222399 3.204353 -1.596245
0.180928 3.205501 -1.504649
0.192951 3.205952 -1.492191
0.235006 3.210997 -1.400157
0.235006 3.210997 -1.400157
0.301810 3.205691 -1.372459
0.327722 3.204510 -1.240993
0.391245 3.190467 -1.160290
0.441833 3.191486 -1.070790
0.451678 3.191687 -1.054614
0.917284 3.160874 0.012043
0.971221 3.163230 -0.027220
0.978691 3.156725 0.077437
1.017162 3.157957 0.103364
1.018958 3.159309 0.190774
0.236879 3.200980 -1.606163
0.367558 3.203957 -1.390510
0.386307 3.208355 -1.376441
0.390508 3.203834 -1.376617
0.439296 3.205520 -1.343773
0.523980 3.192005 -1.218550
0.567653 3.186270 -1.113522
0.633514 3.184262 -1.003516
0.613125 3.182542 -0.861011
0.695249 3.171056 -0.773792
0.722710 3.176380 -0.753338
1.016710 3.155490 -0.007481
1.118582 3.157541 0.097008
1.128607 3.159165 0.086514
1.180447 3.156527 0.228367
1.182264 3.153968 0.226863
0.961531 3.044412 -0.594590
1.169118 3.158048 0.072792
-2.830129 3.165820 -0.709814
-1.964884 3.194088 -1.218290
-1.610893 3.213271 -1.554538
-1.461460 3.206775 -1.626709
-1.018914 3.142681 -1.959223
-1.006667 3.176261 -1.823442
-0.818562 3.188050 -1.409347
-0.982916 3.151825 -2.045115
1.672529 1.814191 0.131653
1.672529 1.814191 0.131653
1.739523 1.817643 0.124106
-0.326579 3.212735 -1.579536
-0.329912 3.215914 -1.579561
-0.229074 3.187055 -1.964851
-0.200115 3.196982 -1.920493
0.270605 3.198005 -0.767412
0.456683 3.182936 -0.203702
0.748602 3.161044 0.177049
-0.076584 3.203735 -1.851463
-0.002067 3.204937 -1.783833
0.096695 3.204168 -1.581969
0.169679 3.213786 -1.204229
0.830010 3.165434 0.148417
-0.088247 3.190749 -2.040028
0.022191 3.176594 -1.950866
0.001577 3.199248 -1.832705
0.080546 3.198899 -1.758073
0.139729 3.198358 -1.772974
0.145397 3.197975 -1.727213
0.205104 3.203093 -1.638067
0.165243 3.202003 -1.529803
0.347610 3.204007 -1.322461
0.919491 3.160302 0.045714
0.137686 3.192942 -1.966745
0.449960 3.200014 -1.362144
1.006611 3.165668 0.017272
0.338271 3.181674 -1.702342
0.337369 3.201055 -1.653997
0.603528 3.190839 -1.100864
0.743761 3.184925 -0.797736
0.469760 1.416106 0.047032
-1.470966 3.205770 -1.180168
1.144873 1.819796 -0.200554
-0.852637 3.195171 -1.310746
-0.813664 3.193562 -1.372626
-0.814573 3.197283 -1.371364
-0.689215 3.189932 -1.566677
-0.613189 3.178982 -2.098905
-0.339807 3.193461 -1.889325
0.117574 3.197661 -1.770069
0.131155 3.191487 -1.905101
0.182231 3.192632 -1.840327
0.138207 3.192010 -1.827828
0.200568 3.199990 -1.781202
0.461325 3.201178 -1.348806
0.520221 3.188894 -1.155214
-1.778214 3.208921 -1.417678
-1.525175 3.205968 -1.302337
-1.313734 3.198475 -1.634534
1.367618 1.816305 -0.138966
-0.398161 3.197155 -1.505832
-0.277522 3.200003 -1.734608
-0.323750 3.174476 -2.089948
0.461287 3.173974 -0.521509
0.205029 3.193724 -1.828625
0.552978 3.194455 -1.085066
1.163507 3.160138 0.315682
-0.995942 1.853628 -0.210630
-0.419179 1.832913 0.136270
-2.342449 3.187649 -1.400911
-2.179457 3.164588 -1.963756
-0.751417 3.187211 -1.560551
-0.602871 3.196561 -1.523727
-0.002468 3.213749 -1.029072
-0.386060 3.180768 -2.068411
-0.084126 3.146276 -1.948248
-0.094482 3.158055 -1.950092
0.239357 3.201098 -1.347802
0.282972 3.203462 -1.372361
0.408881 3.181052 -1.147611
0.408881 3.181052 -1.147611
0.816100 3.175117 -0.030818
0.546168 1.416530 0.090841
-1.764377 3.179766 -2.021081
0.770239 3.159038 0.081595
-0.972259 3.168623 -2.022636
-0.447877 3.192269 -1.481778
-1.528033 3.204649 -1.850061
0.455641 3.190798 -1.105691
-0.876794 3.175043 -1.590644
-2.231056 3.194972 -1.345250
0.542708 1.454892 0.066925
0.996166 3.166474 -0.146195
-0.167958 3.199972 -1.740701
-1.761279 3.189999 -2.003494
-0.412028 1.830698 0.118752
-2.891161 3.137548 -0.749254
-2.842614 3.149064 -0.726503
-2.314753 3.151321 -1.925841
-2.231523 3.159317 -1.928707
-2.277879 3.175655 -1.911202
-2.216686 3.184830 -1.881330
0.535996 1.401738 0.108710
-1.588775 3.190962 -1.862247
-1.210981 3.192515 -1.569470
-1.004801 3.188191 -1.476321
-0.956877 3.159790 -2.082877
-0.978094 3.146829 -2.064883
-0.914177 3.163673 -1.839056
-0.862122 3.185208 -1.586759
-0.818671 3.183599 -1.530037
-0.874824 3.165838 -2.324865
-0.885238 3.151263 -1.987071
0.881026 1.821241 -0.405287
0.952120 1.820171 -0.038988
-0.862385 3.161153 -2.394577
-0.633581 3.176311 -2.236969
-0.632400 3.174262 -2.235879
-0.628795 3.176488 -2.214382
-0.558581 3.175374 -2.244288
1.286121 1.816871 -0.113792
-0.340471 3.182756 -2.046481
-0.326907 3.206145 -1.773586
-0.178515 3.213925 -1.425158
-0.003833 3.211135 -1.189879
-0.228877 3.164219 -2.135563
-0.095706 3.200177 -1.885059
-0.000203 3.205944 -1.675822
0.065341 3.164516 -1.972065
0.149427 3.202816 -1.632540
0.151373 3.204261 -1.574641
0.222171 3.207732 -1.325668
0.481614 3.194544 -0.619077
0.146354 3.198371 -1.907682
0.146354 3.198371 -1.907682
0.176732 3.193826 -1.820741
0.276033 3.196155 -1.833364
0.284400 3.191592 -1.801180
0.221216 3.195301 -1.783937
0.295751 3.198575 -1.664266
0.259035 3.195461 -1.596675
0.313343 3.202768 -1.604917
0.394495 3.199487 -1.483674
0.597707 3.184590 -0.787848
0.363518 3.190057 -1.886954
0.529980 3.191995 -1.511055
0.441461 3.198787 -1.385640
0.547198 3.192200 -1.200644
0.681159 3.179612 -0.828743
1.150692 3.160656 0.305272
0.505114 3.188903 -1.612002
0.543459 3.196273 -1.512841
0.760827 3.180313 -1.219334
0.792218 3.180360 -0.900529
0.848069 3.175545 -0.787726
0.848069 3.175545 -0.787726
0.861339 3.178739 -0.779941
0.873300 3.176365 -0.833284
1.047371 3.167704 -0.225896
1.107314 3.165719 -0.282815
1.269812 3.159227 0.327766
1.077057 3.171843 -0.493826
1.304639 3.160178 -0.083220
1.411887 3.160205 0.263142
1.382133 3.162327 0.334446
1.382136 3.161962 0.334839
1.458233 3.162650 0.338233
1.210237 3.169718 -0.480297
1.339691 3.160665 -0.168913
1.528337 3.163004 0.321328
-2.485770 3.161077 -0.999613
0.507081 1.349460 0.145783
-1.546149 3.199008 -1.886796
-1.413067 3.191179 -2.291448
-1.413516 3.191581 -2.291540
-1.383241 3.201093 -2.245655
0.828699 1.816693 0.068992
-0.851441 3.155275 -2.350364
-0.953672 3.182213 -2.289327
1.073793 1.814358 -0.015909
-0.658925 3.179671 -2.029055
-0.657538 3.172518 -2.280789
-0.074022 3.216777 -1.425922
-0.200039 3.174425 -2.166859
0.097995 3.209470 -1.252815
-0.052258 3.184515 -2.296288
-0.093715 3.189722 -2.149519
0.053219 3.172043 -1.991872
0.050505 3.165521 -1.934396
0.125254 3.204055 -1.694642
0.047996 3.189389 -2.296251
0.010980 3.186671 -2.245447
0.196964 3.184668 -2.016946
0.131461 3.190408 -1.904826
0.268246 3.196171 -1.846191
0.838111 3.033627 -0.416002
0.384158 3.188708 -1.882678
0.398664 3.187764 -1.857798
0.375266 3.188619 -1.849245
0.353987 3.191431 -1.706686
0.353768 3.191593 -1.706707
0.499861 3.194108 -1.538044
0.459790 3.189891 -1.504555
0.450011 3.193707 -1.490543
0.450011 3.193707 -1.490543
0.548023 3.195136 -1.468657
0.489329 3.196522 -1.402629
0.479830 3.195653 -1.337926
0.401420 3.184747 -1.923474
0.508706 3.171858 -1.781280
0.532334 3.181441 -1.734038
0.543435 3.181973 -1.746163
0.577482 3.180196 -1.648882
0.819897 3.178740 -1.074154
0.848405 3.175560 -0.940378
0.921503 3.175272 -0.825616
1.000693 3.042539 -0.568286
0.807793 3.179323 -1.281720
0.818224 3.162225 -1.167355
0.920732 3.175442 -1.061327
0.977459 3.172766 -1.082847
1.326973 3.158764 -0.181803
1.326629 3.159134 -0.181671
-3.350387 3.088755 -0.883083
-2.196472 3.209065 -1.400335
-1.614787 3.205582 -1.512217
-1.602508 3.198816 -2.219172
-1.519672 3.186435 -1.835846
-0.879667 3.169760 -2.285940
-0.881514 3.170934 -2.237231
-0.655656 3.174566 -2.227314
-0.380516 3.193089 -1.338502
-0.443782 3.186632 -2.084855
-0.199910 3.213176 -1.556206
-0.104120 3.208718 -1.516154
0.113536 3.202384 -1.075318
-0.118438 3.186949 -2.328941
0.055200 3.162266 -1.955845
0.071808 3.190662 -1.893725
0.123621 3.205708 -1.504301
0.122611 3.206095 -1.504121
0.187006 3.193405 -1.922103
0.194448 3.199010 -1.763764
0.332401 3.200094 -1.395215
0.405397 3.201409 -1.398183
0.165378 3.187769 -2.326518
0.164131 3.187408 -2.325794
0.490585 3.187831 -1.632195
0.590029 3.185663 -1.235889
